NCOLS       167
NROWS       63
XLLCORNER          671237.5
YLLCORNER          158487.5
CELLSIZE           25.000000
NODATA_VALUE   -9999
2717.80  2710.80  2704.20  2700.30  2699.80  2698.10  2692.50  2683.90  2674.40  2664.00  2653.90  2643.10  2631.20  2622.30  2610.00  2601.90  2592.20  2578.50  2571.30  2561.80  2553.69  2537.79  2519.26  2482.95  2457.74  2442.85  2430.41  2418.32  2409.48  2400.25  2390.62  2396.96  2406.66  2423.62  2429.06  2415.86  2412.34  2413.00  2407.96  2394.04  2387.46  2377.84  2366.44  2354.66  2352.84  2355.36  2359.82  2364.29  2364.28  2367.28  2373.20  2373.59  2373.08  2371.53  2372.14  2369.67  2367.53  2365.60  2363.53  2362.39  2361.23  2359.51  2357.78  2356.04  2353.69  2352.10  2350.46  2348.58  2346.40  2343.95  2341.25  2339.46  2337.21  2334.40  2331.08  2327.26  2331.64  2347.39  2362.78  2383.08  2399.80  2427.51  2435.00  2445.58  2466.84  2485.03  2504.91  2523.81  2531.88  2541.19  2558.00  2575.20  2584.00  2593.60  2602.80  2617.20  2632.20  2650.60  2667.80  2685.60  2702.60  2720.70  2738.30  2752.10  2761.40  2769.50  2777.50  2789.10  2802.40  2812.30  2820.50  2829.40  2840.20  2856.40  2873.10  2902.70  2930.90  2949.50  2983.30  3000.50  2997.50  2966.00  2940.40  2923.40  2902.40  2894.80  2865.80  2828.10  2808.00  2792.50  2782.20  2768.60  2753.90  2740.60  2727.70  2717.10  2701.90  2687.70  2672.70  2660.90  2655.40  2650.40  2644.50  2640.40  2636.60  2630.20  2620.40  2604.20  2587.40  2576.50  2568.30  2559.70  2556.20  2552.40  2548.20  2542.50  2539.20  2537.40  2535.60  2535.60  2537.30  2537.70  2538.10  2536.30  2534.20  2530.30  2527.40
2718.10  2710.80  2703.80  2696.20  2693.90  2691.90  2689.40  2682.50  2671.30  2658.50  2649.10  2639.70  2624.30  2611.80  2598.40  2591.50  2583.40  2572.30  2562.30  2553.90  2543.44  2527.29  2504.99  2478.20  2457.07  2438.80  2425.99  2412.06  2397.23  2379.89  2382.84  2390.90  2399.28  2416.69  2421.12  2406.82  2400.50  2399.99  2396.52  2389.13  2379.25  2371.70  2362.63  2355.08  2349.47  2350.87  2354.64  2357.89  2360.43  2363.36  2367.83  2367.81  2366.40  2367.72  2366.88  2365.45  2363.25  2362.00  2360.32  2358.45  2357.50  2356.44  2355.18  2353.62  2351.84  2350.09  2348.87  2347.09  2344.81  2342.72  2340.76  2339.38  2337.54  2336.02  2333.47  2330.37  2338.05  2353.68  2370.28  2386.94  2402.25  2429.65  2438.78  2448.34  2457.32  2468.24  2481.76  2497.19  2514.59  2530.81  2538.50  2552.30  2566.70  2585.00  2604.10  2618.50  2645.10  2659.70  2673.40  2689.70  2707.10  2722.90  2740.80  2756.30  2767.30  2776.50  2783.20  2791.20  2799.00  2812.70  2825.70  2837.20  2849.60  2862.60  2879.20  2906.70  2941.90  2975.20  2999.80  3000.20  2965.40  2942.20  2927.40  2914.90  2904.60  2895.80  2866.60  2808.70  2790.20  2779.60  2770.50  2761.20  2746.10  2726.50  2715.40  2708.70  2697.70  2679.20  2669.80  2663.00  2658.40  2657.50  2653.90  2650.70  2643.40  2633.90  2624.60  2606.00  2590.80  2578.60  2570.60  2562.60  2557.50  2553.50  2549.50  2543.40  2539.10  2537.40  2535.70  2534.10  2534.10  2534.60  2535.20  2534.10  2531.50  2528.10  2522.90
2717.40  2710.50  2703.60  2695.60  2687.60  2685.80  2682.60  2681.20  2670.40  2658.40  2645.80  2633.30  2618.50  2605.60  2591.50  2580.10  2573.80  2565.10  2553.70  2545.30  2536.50  2516.35  2497.38  2468.96  2450.11  2428.84  2410.51  2399.44  2377.78  2364.39  2380.31  2385.79  2391.74  2409.12  2408.65  2391.28  2393.42  2393.41  2388.16  2384.58  2378.46  2366.16  2355.02  2348.97  2345.67  2347.49  2350.70  2353.71  2355.56  2359.66  2361.65  2361.76  2361.63  2362.14  2361.52  2360.53  2359.13  2357.94  2356.73  2355.24  2354.23  2353.66  2352.73  2351.41  2349.82  2348.35  2347.06  2345.46  2343.70  2341.84  2339.94  2338.49  2336.83  2335.34  2332.66  2332.26  2342.90  2359.38  2371.45  2390.58  2407.79  2432.48  2445.33  2452.93  2462.25  2474.98  2485.91  2498.96  2511.37  2523.48  2535.00  2550.00  2566.30  2586.10  2610.40  2629.60  2647.80  2664.90  2679.20  2696.00  2712.60  2729.10  2746.70  2762.60  2772.70  2781.60  2788.40  2795.90  2803.20  2813.60  2826.50  2838.80  2855.80  2869.10  2885.10  2912.60  2945.00  2976.00  3000.20  3000.30  2971.70  2941.70  2911.90  2897.60  2888.80  2880.10  2833.70  2801.20  2784.40  2770.10  2757.50  2749.00  2735.80  2721.10  2712.50  2705.40  2697.00  2682.80  2674.40  2669.10  2664.40  2664.00  2662.20  2660.30  2651.90  2642.60  2630.40  2610.70  2592.40  2580.00  2572.90  2567.40  2561.10  2553.70  2546.60  2540.40  2539.00  2537.40  2535.70  2534.10  2532.60  2532.00  2532.40  2531.80  2529.00  2526.20  2520.60
2720.40  2707.20  2701.40  2692.60  2684.90  2679.90  2673.00  2672.00  2664.90  2651.90  2636.40  2625.00  2611.30  2600.00  2586.00  2574.30  2564.50  2550.90  2545.50  2534.23  2524.44  2501.77  2481.80  2456.70  2437.03  2410.58  2395.53  2367.32  2359.35  2362.27  2371.48  2376.72  2385.73  2404.53  2404.28  2384.29  2385.56  2383.03  2379.48  2377.01  2368.93  2354.75  2346.01  2348.75  2348.02  2345.55  2343.20  2348.02  2350.80  2353.86  2355.67  2355.52  2357.39  2357.80  2356.60  2356.10  2355.22  2354.61  2353.86  2352.64  2351.67  2351.04  2350.68  2349.40  2348.16  2346.76  2345.54  2344.30  2342.68  2341.01  2339.43  2337.85  2336.15  2335.57  2332.07  2333.91  2347.05  2364.79  2376.70  2393.45  2410.02  2434.54  2450.80  2457.21  2467.02  2477.94  2489.42  2499.94  2510.50  2520.57  2533.70  2544.50  2566.40  2590.00  2611.80  2630.00  2648.60  2667.00  2684.70  2703.70  2720.60  2740.00  2757.80  2766.40  2774.10  2782.60  2793.10  2800.20  2809.20  2818.10  2832.10  2846.50  2861.50  2875.20  2893.00  2913.60  2938.50  2969.30  2993.00  2979.00  2962.50  2920.00  2891.50  2879.70  2871.80  2851.70  2821.10  2799.60  2782.80  2767.00  2754.60  2744.50  2734.20  2723.50  2715.60  2707.90  2700.30  2687.50  2679.90  2676.90  2671.90  2670.00  2667.40  2662.10  2655.40  2645.20  2630.10  2611.40  2594.80  2582.50  2574.20  2567.40  2560.90  2553.20  2545.10  2539.60  2538.50  2537.20  2535.70  2534.00  2532.60  2531.20  2530.30  2529.60  2527.10  2523.60  2518.20
2718.80  2706.20  2695.60  2687.80  2680.00  2671.60  2665.10  2661.40  2660.00  2644.20  2629.30  2615.10  2602.60  2590.20  2579.10  2569.90  2560.40  2545.30  2515.10  2514.41  2494.85  2477.75  2458.90  2429.25  2399.99  2380.48  2362.25  2352.25  2353.16  2355.50  2359.30  2368.15  2381.64  2392.00  2383.32  2376.93  2377.36  2369.39  2365.76  2361.72  2349.72  2340.39  2343.55  2352.29  2354.26  2345.42  2339.50  2342.84  2345.62  2348.25  2350.19  2351.67  2352.80  2353.00  2352.67  2352.50  2351.58  2351.30  2350.95  2350.16  2349.37  2348.89  2348.63  2347.76  2346.76  2345.83  2344.25  2343.21  2341.62  2339.87  2338.39  2337.09  2336.61  2334.55  2330.14  2335.19  2351.87  2366.16  2382.79  2394.65  2414.66  2439.14  2451.11  2459.79  2470.74  2481.19  2492.47  2503.61  2512.82  2520.88  2533.80  2546.90  2569.60  2592.00  2612.20  2630.40  2649.40  2668.90  2686.30  2706.50  2727.60  2744.70  2757.00  2765.40  2772.80  2778.60  2792.00  2805.70  2814.50  2824.20  2839.00  2853.30  2867.30  2882.00  2909.20  2936.80  2939.60  2965.20  2977.70  2972.10  2957.10  2912.00  2879.40  2865.80  2856.40  2834.20  2814.50  2799.50  2781.90  2767.00  2756.10  2746.10  2736.40  2727.30  2717.80  2709.30  2700.40  2692.30  2687.70  2682.60  2678.30  2674.90  2669.50  2664.10  2658.10  2645.20  2630.00  2610.80  2595.00  2585.20  2575.80  2568.50  2559.90  2552.10  2545.20  2539.60  2538.60  2537.40  2535.80  2534.60  2533.60  2532.60  2529.50  2526.10  2524.40  2522.00  2516.50
2715.40  2700.30  2693.50  2684.30  2674.10  2665.50  2657.30  2652.80  2651.80  2636.10  2622.20  2608.70  2595.50  2583.10  2571.00  2560.70  2549.50  2530.60  2512.50  2466.96  2449.98  2432.12  2410.08  2386.57  2364.50  2349.12  2346.46  2344.34  2346.94  2346.24  2352.41  2364.10  2379.79  2376.20  2362.46  2366.66  2364.31  2356.20  2351.44  2339.97  2335.74  2333.92  2344.79  2357.14  2358.40  2348.07  2334.31  2338.24  2340.69  2343.17  2345.37  2347.08  2348.31  2349.18  2349.34  2349.26  2348.77  2348.95  2348.89  2347.69  2347.29  2347.32  2346.86  2346.20  2345.38  2344.43  2343.13  2342.11  2340.71  2339.13  2337.34  2335.87  2334.49  2331.66  2328.48  2334.00  2350.85  2367.49  2380.53  2399.56  2425.89  2442.14  2450.86  2458.13  2470.52  2481.59  2493.84  2505.01  2516.25  2528.50  2537.20  2553.50  2572.90  2594.00  2612.10  2630.50  2648.70  2667.50  2684.40  2702.80  2723.10  2739.70  2755.60  2764.80  2772.30  2778.70  2792.80  2808.70  2819.60  2830.60  2844.70  2861.80  2875.70  2900.00  2923.90  2953.40  2976.50  2975.10  2965.00  2958.70  2940.90  2899.30  2874.70  2855.80  2841.10  2826.60  2809.80  2796.50  2784.00  2772.10  2760.80  2749.50  2739.30  2729.30  2720.80  2713.80  2703.30  2697.80  2692.20  2689.00  2686.10  2678.10  2672.70  2667.30  2660.10  2645.40  2629.00  2609.80  2594.60  2585.30  2578.10  2569.70  2561.90  2553.70  2549.60  2543.40  2539.90  2539.50  2538.40  2537.60  2537.00  2536.00  2530.60  2526.50  2521.40  2519.20  2512.20
2707.20  2696.60  2689.10  2680.90  2670.70  2660.00  2650.60  2647.00  2642.60  2629.50  2614.80  2601.40  2589.30  2571.90  2552.50  2541.60  2529.50  2511.40  2488.10  2449.80  2431.93  2401.30  2382.49  2366.78  2352.39  2344.83  2341.33  2340.17  2342.47  2343.35  2352.10  2367.08  2374.66  2355.61  2339.33  2330.25  2324.77  2333.45  2331.21  2330.70  2328.64  2330.36  2349.67  2357.55  2353.98  2339.25  2331.59  2333.60  2337.40  2338.64  2341.24  2343.29  2345.13  2346.45  2346.88  2346.99  2346.69  2346.88  2346.83  2346.24  2345.56  2345.46  2345.13  2344.66  2343.79  2342.77  2341.73  2341.05  2339.72  2337.94  2336.07  2334.54  2333.19  2330.93  2325.86  2331.38  2349.24  2363.37  2379.77  2401.22  2424.58  2446.23  2462.37  2474.30  2482.16  2491.46  2504.60  2513.24  2521.39  2538.80  2548.80  2563.90  2579.00  2595.70  2612.20  2627.60  2645.30  2662.70  2682.20  2700.00  2720.80  2737.10  2750.70  2758.60  2765.20  2783.00  2796.20  2810.70  2828.10  2839.60  2858.10  2880.70  2898.50  2919.70  2943.80  2972.30  3000.60  2995.60  2973.50  2957.10  2932.90  2896.90  2871.00  2853.80  2838.80  2823.60  2810.30  2797.60  2786.60  2775.60  2763.70  2754.50  2745.10  2736.50  2729.60  2725.00  2715.40  2704.30  2699.40  2697.60  2694.20  2683.80  2676.00  2669.90  2663.10  2646.30  2629.50  2610.60  2594.70  2586.40  2581.50  2576.10  2567.30  2559.90  2559.40  2555.10  2550.80  2547.20  2543.00  2541.20  2540.40  2537.50  2532.40  2526.90  2521.50  2514.20  2505.50
2700.80  2693.50  2687.20  2680.20  2671.30  2662.80  2653.30  2645.40  2636.40  2622.80  2611.40  2600.00  2587.50  2574.10  2561.60  2540.20  2499.50  2486.10  2478.58  2448.81  2417.90  2395.88  2381.28  2365.26  2352.43  2342.03  2339.55  2339.21  2339.55  2341.77  2355.81  2364.77  2350.99  2333.92  2322.37  2313.35  2312.27  2314.04  2319.93  2328.24  2324.96  2327.31  2340.78  2345.85  2345.60  2337.15  2327.74  2329.60  2333.32  2335.29  2337.40  2340.70  2342.92  2344.34  2345.07  2345.21  2345.18  2345.20  2345.20  2344.91  2344.44  2343.79  2343.66  2343.02  2342.44  2341.26  2340.12  2339.09  2338.22  2335.89  2334.44  2333.57  2331.59  2326.87  2324.51  2330.53  2345.96  2362.27  2376.20  2394.26  2418.46  2441.11  2458.88  2475.55  2487.23  2501.82  2515.96  2527.32  2539.47  2552.20  2561.80  2575.30  2589.50  2604.30  2618.60  2633.20  2648.50  2667.60  2684.40  2702.20  2720.00  2731.90  2741.70  2754.50  2762.90  2776.50  2805.50  2825.10  2845.30  2861.90  2884.50  2906.80  2921.90  2934.60  2956.90  2983.80  3007.10  3002.40  2985.20  2960.00  2925.90  2889.10  2869.90  2854.60  2839.60  2825.10  2813.60  2802.00  2791.00  2780.80  2771.60  2762.00  2751.70  2745.40  2738.20  2730.20  2722.50  2711.60  2707.70  2704.90  2699.00  2692.80  2683.80  2678.70  2664.30  2647.50  2629.60  2612.00  2596.20  2589.30  2585.00  2584.90  2585.40  2580.30  2573.00  2567.00  2562.80  2556.30  2551.70  2547.60  2543.10  2538.70  2534.50  2530.30  2523.70  2517.80  2507.00
2696.90  2689.60  2682.30  2675.30  2665.20  2657.90  2650.10  2639.30  2627.20  2615.10  2604.60  2594.00  2582.40  2571.50  2562.20  2548.40  2533.30  2516.00  2521.07  2451.10  2427.66  2392.87  2378.11  2363.52  2349.69  2339.76  2338.91  2340.69  2345.78  2353.22  2357.85  2361.72  2328.90  2316.55  2308.14  2305.07  2306.40  2309.81  2319.91  2318.99  2321.94  2324.69  2331.89  2329.54  2326.51  2320.13  2318.82  2326.20  2331.42  2333.50  2335.44  2339.87  2341.37  2342.52  2343.31  2343.23  2342.74  2343.23  2343.54  2343.23  2342.44  2341.70  2341.80  2341.51  2340.91  2340.25  2338.68  2337.29  2336.26  2334.42  2333.12  2331.91  2329.97  2327.68  2323.65  2329.42  2344.33  2360.41  2376.14  2392.40  2411.78  2432.51  2453.23  2475.93  2492.25  2508.75  2526.35  2541.13  2545.11  2566.50  2576.50  2588.30  2602.20  2615.20  2630.90  2646.30  2660.90  2678.80  2696.60  2709.80  2721.60  2732.30  2744.30  2758.60  2772.00  2779.90  2806.50  2836.40  2870.00  2898.40  2908.70  2927.40  2945.10  2961.90  2973.90  2992.50  3020.10  3016.80  2995.20  2965.90  2932.70  2895.50  2877.20  2858.60  2845.10  2832.50  2820.60  2809.10  2799.40  2789.80  2781.00  2771.30  2761.00  2754.60  2745.20  2735.30  2728.20  2716.80  2716.20  2710.60  2706.40  2702.60  2695.60  2682.70  2666.90  2648.40  2635.80  2620.50  2607.60  2597.80  2588.90  2587.80  2590.20  2584.70  2581.90  2578.80  2576.10  2566.20  2556.50  2552.80  2548.50  2544.80  2541.70  2533.40  2523.30  2513.20  2502.90
2690.50  2683.50  2676.70  2664.70  2657.50  2647.10  2637.90  2630.10  2619.70  2604.30  2595.80  2584.10  2573.00  2560.70  2553.40  2542.00  2526.30  2509.50  2504.57  2464.79  2438.53  2390.24  2373.79  2359.27  2347.47  2339.61  2340.87  2344.25  2345.70  2346.67  2337.01  2325.07  2313.87  2303.12  2297.59  2300.85  2302.81  2308.34  2312.05  2321.32  2327.85  2328.16  2333.57  2333.18  2330.10  2321.65  2318.30  2322.53  2329.33  2331.37  2333.41  2338.14  2340.39  2341.02  2342.43  2341.56  2341.13  2341.84  2341.82  2340.87  2340.19  2339.42  2339.89  2339.76  2339.32  2338.34  2337.16  2335.83  2334.51  2333.24  2331.83  2330.56  2327.23  2326.19  2323.01  2327.01  2342.43  2356.65  2375.09  2392.61  2413.26  2431.24  2453.39  2471.07  2490.49  2512.00  2527.44  2543.92  2562.80  2577.40  2588.00  2599.40  2611.40  2625.50  2642.30  2659.60  2674.30  2690.90  2705.50  2718.30  2729.80  2740.30  2750.40  2760.80  2778.40  2792.40  2808.80  2838.20  2860.10  2896.50  2923.50  2946.60  2968.30  2986.00  3000.30  3012.10  3018.70  3014.80  3002.30  2980.40  2954.70  2926.30  2901.80  2870.50  2854.60  2841.80  2830.20  2819.20  2809.10  2798.80  2790.60  2782.70  2773.80  2765.40  2753.10  2743.30  2734.70  2726.00  2723.50  2717.70  2713.80  2710.20  2706.30  2688.00  2669.40  2661.10  2653.10  2640.00  2614.80  2602.10  2591.00  2587.90  2586.20  2586.70  2585.50  2582.90  2581.40  2575.00  2559.30  2558.90  2558.40  2552.10  2539.30  2528.70  2517.70  2507.40  2499.90
2681.80  2672.00  2663.70  2654.40  2647.10  2636.40  2628.20  2620.70  2609.20  2596.90  2588.10  2580.70  2566.40  2547.90  2532.50  2525.10  2510.30  2479.70  2470.66  2432.78  2411.63  2391.35  2373.79  2355.74  2341.01  2339.24  2342.52  2341.42  2332.94  2330.10  2320.79  2310.91  2300.66  2292.47  2291.24  2294.87  2299.81  2304.52  2314.53  2324.80  2329.05  2328.99  2328.32  2332.94  2332.13  2320.93  2316.86  2321.31  2321.54  2327.30  2331.96  2336.23  2338.21  2339.27  2340.65  2340.46  2339.89  2339.66  2339.22  2338.51  2337.99  2338.24  2338.25  2337.90  2337.22  2336.04  2335.44  2333.85  2332.65  2331.60  2330.55  2329.64  2327.04  2325.15  2318.84  2324.42  2338.48  2354.15  2375.61  2390.96  2414.24  2429.88  2448.49  2467.45  2489.42  2509.55  2524.69  2540.39  2563.70  2578.90  2591.20  2603.70  2617.10  2632.80  2650.60  2668.80  2686.50  2701.90  2711.40  2722.00  2734.40  2745.60  2755.90  2772.70  2783.70  2801.20  2819.10  2838.50  2860.80  2883.00  2909.80  2932.60  2954.90  2978.60  3000.50  3005.10  3002.10  2998.70  2994.90  2993.00  2980.60  2947.00  2900.00  2884.40  2865.60  2851.50  2841.80  2832.60  2822.90  2814.60  2811.20  2798.30  2788.40  2779.70  2769.90  2758.20  2748.70  2736.00  2731.20  2725.60  2719.00  2722.30  2709.70  2691.70  2678.00  2663.60  2646.00  2634.10  2615.00  2606.00  2600.10  2593.10  2586.00  2581.00  2580.50  2579.10  2576.00  2573.80  2568.40  2564.20  2557.50  2547.70  2536.20  2526.40  2515.60  2515.80  2517.80
2666.90  2658.70  2651.00  2645.30  2635.90  2624.80  2614.50  2604.30  2593.30  2585.50  2576.20  2566.70  2557.40  2542.60  2527.80  2509.60  2486.30  2466.89  2448.45  2430.43  2411.58  2396.37  2381.60  2359.04  2340.10  2339.32  2342.85  2342.47  2327.77  2319.64  2307.85  2299.39  2293.87  2289.49  2289.80  2291.86  2293.23  2303.11  2317.67  2326.27  2329.26  2328.34  2333.84  2331.13  2325.65  2320.87  2320.26  2315.50  2310.34  2322.72  2328.26  2333.24  2334.35  2336.78  2338.28  2336.34  2336.57  2336.60  2336.58  2335.69  2334.95  2335.94  2335.79  2334.84  2334.66  2333.52  2332.72  2331.78  2330.37  2329.47  2328.95  2328.01  2326.43  2323.68  2319.31  2324.00  2336.62  2354.19  2376.35  2393.83  2415.80  2430.70  2447.85  2465.70  2484.90  2505.66  2523.19  2540.98  2560.60  2575.10  2589.50  2602.70  2617.30  2633.70  2651.10  2669.40  2689.20  2706.50  2715.30  2727.40  2740.90  2751.90  2766.80  2790.70  2799.00  2816.20  2831.90  2847.00  2867.90  2892.20  2908.50  2929.70  2955.90  2982.10  2993.90  2989.00  2982.90  2981.10  2977.90  2979.20  2983.90  2966.70  2936.20  2906.60  2887.70  2866.40  2854.60  2847.30  2842.10  2840.70  2846.20  2837.70  2823.40  2812.00  2798.70  2784.50  2773.90  2753.60  2739.20  2734.70  2731.40  2724.70  2710.50  2693.80  2672.80  2654.80  2637.80  2627.70  2619.40  2613.00  2607.90  2602.80  2594.70  2580.50  2577.90  2573.40  2569.50  2565.60  2560.70  2555.80  2550.20  2542.80  2532.50  2526.30  2525.40  2525.10  2524.70
2653.40  2646.30  2636.00  2623.90  2617.90  2606.50  2599.80  2585.60  2575.90  2563.50  2556.60  2542.80  2534.60  2524.60  2512.70  2493.50  2479.50  2467.75  2451.35  2433.22  2419.72  2406.78  2385.72  2362.28  2342.85  2337.81  2341.30  2336.99  2324.90  2314.28  2306.33  2298.94  2293.49  2287.77  2286.31  2285.44  2285.31  2293.83  2296.85  2305.46  2320.79  2324.46  2324.38  2328.10  2325.66  2320.53  2322.77  2314.07  2307.81  2314.90  2322.33  2327.11  2331.21  2332.39  2334.22  2332.69  2333.40  2333.35  2333.50  2332.39  2332.47  2332.75  2332.33  2331.91  2331.08  2329.85  2329.76  2329.26  2328.58  2327.60  2327.18  2326.36  2323.82  2321.69  2317.81  2323.54  2338.78  2356.56  2379.44  2403.95  2416.08  2430.00  2446.62  2465.22  2482.50  2502.13  2519.53  2536.49  2553.80  2571.20  2586.90  2606.10  2628.30  2644.60  2659.00  2677.80  2703.00  2723.10  2733.90  2743.30  2751.50  2770.60  2789.10  2815.50  2823.60  2835.50  2855.90  2870.20  2875.80  2911.80  2931.90  2949.40  2962.40  2982.90  2979.40  2968.70  2964.40  2961.40  2959.70  2966.20  2977.90  2972.80  2957.70  2930.10  2913.50  2900.60  2886.00  2880.00  2882.00  2876.10  2866.80  2855.90  2841.10  2828.50  2812.10  2800.60  2785.50  2770.10  2755.80  2746.80  2742.20  2726.90  2705.60  2677.90  2662.60  2648.90  2636.90  2629.20  2624.60  2620.20  2615.60  2610.70  2600.50  2588.50  2581.70  2578.10  2570.10  2561.70  2555.10  2547.60  2541.70  2538.50  2537.50  2540.50  2541.70  2536.80  2529.00
2652.60  2642.00  2632.50  2621.10  2608.50  2597.90  2586.80  2575.00  2562.40  2553.50  2542.50  2533.90  2526.60  2520.90  2511.10  2494.30  2485.47  2472.63  2455.64  2441.63  2428.86  2413.97  2393.86  2367.35  2344.84  2340.85  2341.56  2337.38  2323.17  2314.60  2305.41  2297.74  2292.95  2287.22  2282.30  2278.47  2278.80  2282.84  2286.94  2301.62  2324.01  2327.49  2326.06  2329.62  2325.79  2324.80  2319.86  2310.93  2303.64  2308.77  2316.46  2321.09  2325.93  2327.87  2329.45  2327.55  2328.66  2329.01  2329.38  2328.83  2328.67  2328.28  2328.61  2328.42  2328.36  2326.72  2327.06  2326.76  2326.12  2325.13  2324.89  2324.32  2322.33  2319.99  2317.28  2324.11  2337.49  2356.70  2382.17  2406.75  2412.48  2427.36  2444.40  2464.51  2480.65  2500.93  2516.57  2528.19  2552.50  2572.80  2592.00  2613.30  2630.40  2652.60  2677.80  2690.10  2714.80  2732.30  2751.00  2764.90  2769.00  2795.00  2819.50  2836.50  2848.90  2858.10  2888.00  2898.00  2903.40  2907.10  2953.20  2956.60  2958.30  2967.30  2959.40  2951.20  2944.60  2940.20  2941.30  2957.30  2969.30  2971.40  2965.00  2950.20  2934.30  2918.70  2913.00  2903.90  2905.90  2900.20  2882.50  2865.70  2849.20  2835.10  2822.50  2808.20  2795.60  2781.70  2766.10  2755.90  2738.80  2719.00  2695.40  2677.00  2660.10  2647.90  2639.10  2633.70  2630.30  2626.20  2622.20  2613.00  2605.20  2597.30  2593.40  2586.60  2575.30  2563.50  2554.70  2547.40  2552.30  2553.20  2547.40  2548.20  2543.70  2536.70  2528.30
2651.80  2644.40  2633.90  2622.10  2611.70  2606.90  2597.80  2586.10  2572.20  2559.30  2549.10  2538.70  2532.50  2526.90  2518.90  2501.60  2490.84  2477.75  2464.08  2453.49  2426.58  2408.51  2389.05  2369.29  2353.20  2345.63  2339.33  2333.39  2319.76  2313.91  2301.32  2294.06  2290.86  2286.40  2277.56  2271.24  2273.51  2282.35  2288.29  2305.95  2311.58  2318.14  2325.27  2327.82  2322.98  2324.22  2314.65  2305.43  2297.48  2304.11  2311.10  2315.44  2319.85  2323.10  2323.78  2324.43  2324.17  2324.39  2324.70  2324.06  2324.48  2324.95  2325.03  2325.33  2325.17  2323.72  2323.99  2324.45  2323.89  2323.35  2323.86  2322.86  2321.53  2318.92  2317.05  2322.51  2337.72  2356.81  2382.26  2403.57  2408.11  2419.01  2443.34  2464.74  2483.01  2501.84  2520.19  2534.50  2554.60  2571.80  2589.40  2612.30  2635.40  2653.90  2675.10  2694.00  2715.70  2732.80  2746.70  2772.10  2795.20  2824.20  2842.40  2857.00  2878.10  2888.50  2912.50  2926.40  2936.50  2944.90  2948.50  2943.70  2939.00  2938.30  2931.80  2932.00  2926.70  2926.50  2933.00  2943.20  2961.10  2964.90  2962.50  2956.30  2943.00  2931.00  2919.30  2908.40  2894.50  2881.40  2871.10  2861.30  2848.50  2831.90  2817.90  2811.20  2802.20  2789.50  2776.00  2760.50  2739.10  2716.90  2695.40  2676.20  2659.70  2651.60  2643.20  2640.20  2636.90  2630.80  2623.20  2615.80  2607.90  2604.10  2601.40  2593.30  2578.30  2564.30  2557.70  2559.60  2564.20  2560.00  2556.80  2550.00  2542.60  2535.10  2528.40
2646.90  2640.90  2635.60  2630.10  2622.60  2615.60  2607.00  2596.00  2586.00  2574.50  2559.50  2542.00  2528.40  2519.00  2513.30  2505.10  2491.47  2482.81  2474.72  2459.33  2437.69  2421.72  2399.17  2379.94  2360.83  2352.34  2342.63  2327.66  2316.34  2308.48  2298.33  2292.96  2289.05  2282.27  2270.00  2265.94  2267.31  2273.75  2286.31  2298.80  2304.58  2312.26  2318.98  2323.43  2319.86  2320.06  2308.86  2298.24  2290.84  2300.11  2306.65  2310.90  2313.10  2317.14  2317.37  2318.67  2318.99  2320.03  2320.03  2319.37  2320.45  2321.05  2321.87  2322.08  2321.50  2321.13  2321.29  2322.01  2322.33  2322.16  2322.24  2321.58  2320.20  2319.02  2318.89  2324.82  2338.05  2356.51  2380.21  2399.74  2407.67  2422.19  2444.24  2464.95  2483.93  2501.13  2517.74  2535.90  2552.90  2570.00  2589.40  2617.90  2635.40  2656.20  2672.90  2691.70  2709.40  2727.10  2746.90  2769.80  2798.00  2826.90  2850.20  2872.80  2887.20  2900.30  2922.60  2941.80  2939.10  2945.30  2927.80  2916.60  2915.50  2908.70  2909.10  2914.40  2914.60  2919.20  2928.30  2938.20  2948.80  2957.30  2951.10  2942.30  2932.50  2923.30  2915.10  2905.50  2888.60  2863.30  2848.80  2845.00  2830.30  2817.80  2794.40  2790.70  2787.30  2782.40  2772.80  2763.10  2740.00  2715.00  2694.90  2676.10  2659.70  2653.80  2649.00  2644.40  2639.90  2632.10  2624.90  2617.50  2613.60  2608.50  2601.70  2592.90  2577.90  2572.70  2569.60  2570.80  2569.20  2563.70  2557.90  2551.40  2545.10  2540.80  2532.30
2650.40  2646.60  2640.00  2631.70  2623.10  2616.20  2607.40  2598.80  2589.30  2580.00  2558.60  2542.70  2530.50  2521.00  2515.90  2508.00  2508.78  2495.57  2483.02  2468.67  2459.14  2436.15  2416.68  2397.64  2377.50  2356.73  2345.11  2328.93  2314.79  2304.95  2297.78  2290.64  2282.43  2269.24  2263.20  2262.43  2261.53  2266.18  2281.21  2286.83  2294.41  2298.56  2309.54  2313.93  2316.59  2313.67  2305.55  2291.12  2287.97  2296.66  2302.19  2306.53  2308.84  2310.54  2313.50  2312.92  2313.48  2314.54  2314.97  2314.77  2315.49  2316.82  2318.27  2319.04  2318.24  2318.67  2319.28  2320.01  2320.42  2320.97  2320.75  2320.16  2318.76  2318.79  2320.09  2326.19  2339.46  2357.33  2380.06  2399.10  2408.58  2427.76  2449.17  2469.91  2487.76  2500.94  2515.54  2538.40  2553.60  2572.20  2590.40  2610.30  2633.30  2655.50  2670.70  2688.00  2708.60  2726.20  2747.50  2768.00  2791.10  2818.80  2842.10  2856.80  2876.90  2899.10  2921.20  2911.80  2886.10  2889.90  2887.10  2891.60  2895.40  2889.70  2894.20  2901.40  2908.90  2914.80  2924.50  2934.00  2943.20  2947.30  2938.60  2922.10  2915.50  2910.00  2903.30  2895.80  2885.30  2860.30  2834.00  2811.60  2797.00  2789.80  2777.70  2766.10  2765.00  2763.50  2753.10  2741.80  2720.20  2704.50  2687.90  2674.20  2664.10  2657.60  2651.70  2646.20  2640.40  2632.40  2625.90  2620.50  2613.70  2605.80  2598.00  2589.30  2585.70  2584.00  2581.60  2574.30  2567.00  2560.70  2553.30  2547.90  2541.80  2537.30  2526.00
2652.50  2645.70  2636.50  2626.90  2619.30  2610.50  2604.00  2593.40  2580.70  2569.80  2559.40  2550.30  2539.40  2529.90  2523.70  2520.10  2511.96  2505.04  2492.27  2487.01  2469.21  2449.25  2427.89  2402.06  2381.61  2365.24  2349.84  2334.27  2316.25  2303.93  2295.72  2286.85  2276.83  2264.58  2259.74  2258.01  2258.40  2260.72  2267.34  2276.09  2286.64  2293.96  2300.37  2307.63  2313.44  2309.44  2304.56  2284.10  2287.62  2293.80  2297.96  2302.22  2305.09  2307.21  2307.79  2306.19  2307.77  2309.86  2308.84  2310.29  2311.90  2313.22  2314.43  2315.21  2315.50  2316.03  2317.17  2318.15  2318.46  2318.77  2318.93  2318.35  2318.23  2317.02  2320.40  2327.06  2342.32  2359.09  2383.92  2402.65  2414.95  2432.54  2452.66  2469.26  2485.51  2501.17  2515.89  2535.60  2552.60  2572.90  2587.60  2607.70  2631.70  2653.80  2668.70  2686.70  2706.60  2725.70  2746.20  2768.00  2789.70  2809.40  2831.90  2860.00  2881.20  2899.80  2892.20  2870.50  2864.00  2864.60  2863.60  2867.90  2873.30  2881.00  2888.70  2896.40  2901.00  2910.30  2920.60  2928.40  2935.50  2937.40  2925.40  2910.70  2903.70  2895.60  2886.70  2877.10  2867.80  2850.00  2823.70  2796.50  2783.70  2768.60  2756.50  2750.60  2746.30  2742.10  2734.90  2718.80  2710.00  2697.40  2687.00  2674.40  2667.60  2659.90  2653.10  2647.20  2640.90  2632.80  2626.90  2622.40  2615.60  2606.70  2599.60  2599.10  2598.50  2592.50  2583.20  2573.90  2565.30  2556.40  2546.80  2539.20  2534.50  2530.70  2519.80
2644.60  2641.10  2629.80  2622.10  2613.20  2602.50  2598.80  2581.20  2571.30  2559.20  2553.20  2547.20  2542.20  2538.40  2530.80  2526.40  2516.85  2511.44  2502.15  2496.43  2480.74  2448.23  2426.55  2413.30  2396.59  2376.77  2353.33  2342.63  2320.41  2303.27  2293.28  2284.39  2274.10  2262.59  2258.66  2255.42  2255.18  2256.43  2259.37  2263.55  2272.33  2284.02  2290.29  2299.89  2307.47  2304.67  2297.35  2280.74  2287.34  2292.09  2295.85  2298.19  2299.91  2301.07  2301.19  2301.71  2303.11  2305.84  2305.62  2305.91  2308.11  2309.81  2310.76  2312.11  2313.03  2314.08  2315.27  2315.97  2316.56  2316.72  2316.99  2316.79  2315.70  2317.00  2317.49  2329.46  2346.23  2364.76  2386.45  2403.92  2419.89  2436.21  2457.89  2471.52  2491.07  2509.47  2524.96  2542.60  2556.50  2572.30  2587.80  2605.70  2633.70  2651.40  2667.20  2685.20  2705.60  2724.90  2743.90  2762.50  2783.10  2811.40  2839.70  2853.70  2874.60  2900.40  2870.70  2851.80  2848.70  2848.70  2849.80  2853.80  2859.20  2871.20  2882.10  2889.30  2894.60  2901.10  2911.90  2921.00  2924.90  2925.90  2918.00  2905.20  2893.00  2882.20  2871.90  2857.80  2841.00  2822.40  2802.90  2788.00  2773.70  2758.70  2748.40  2739.20  2732.00  2726.70  2716.80  2707.60  2699.40  2691.80  2681.80  2675.70  2668.30  2660.60  2655.60  2646.70  2640.00  2631.10  2626.60  2622.20  2617.10  2611.40  2606.30  2604.20  2602.80  2595.00  2582.00  2573.10  2563.90  2553.80  2542.50  2534.60  2528.90  2524.50  2519.50
2634.40  2629.10  2620.00  2609.20  2599.60  2595.30  2588.90  2580.40  2570.50  2559.20  2554.50  2549.70  2544.30  2539.70  2534.60  2528.90  2531.04  2517.03  2501.97  2494.37  2475.60  2452.90  2435.46  2417.04  2404.52  2385.97  2359.25  2347.84  2326.81  2307.64  2291.99  2283.42  2269.41  2262.76  2256.24  2253.33  2251.60  2250.88  2252.60  2256.51  2266.45  2273.96  2282.03  2295.09  2302.23  2299.35  2287.15  2277.61  2285.06  2290.70  2292.25  2294.38  2294.75  2294.42  2295.31  2296.86  2298.96  2301.50  2302.27  2303.29  2305.31  2306.93  2308.19  2309.18  2310.70  2311.90  2313.05  2313.63  2314.26  2314.65  2315.28  2315.05  2314.20  2314.78  2319.09  2332.00  2350.60  2368.04  2388.49  2403.65  2422.51  2442.74  2472.84  2494.11  2512.77  2531.36  2545.00  2554.20  2565.10  2580.80  2597.70  2620.00  2640.80  2652.90  2665.60  2683.60  2702.70  2722.20  2742.20  2762.50  2784.10  2808.50  2834.30  2861.80  2877.90  2848.20  2834.20  2832.80  2834.50  2834.80  2838.40  2843.50  2848.80  2859.40  2872.70  2883.50  2889.00  2894.70  2901.00  2908.50  2915.00  2916.60  2910.20  2897.50  2885.00  2874.60  2863.60  2846.90  2830.00  2813.10  2795.50  2782.30  2767.10  2753.50  2743.00  2733.70  2724.50  2717.50  2712.30  2703.90  2696.70  2688.50  2680.50  2673.90  2667.40  2661.60  2655.00  2643.50  2635.50  2628.90  2626.00  2623.20  2621.20  2617.50  2613.20  2609.50  2600.90  2591.70  2579.40  2568.40  2557.80  2549.10  2539.80  2531.30  2524.70  2518.30  2509.70
2618.20  2613.00  2607.80  2598.90  2592.90  2585.70  2579.00  2574.30  2569.10  2559.00  2552.30  2546.30  2542.00  2537.90  2533.00  2529.60  2533.74  2520.51  2507.22  2491.09  2476.17  2459.01  2440.35  2421.19  2411.99  2395.28  2373.40  2349.83  2326.57  2306.71  2293.21  2279.28  2266.04  2258.24  2255.58  2251.70  2247.25  2246.68  2248.69  2251.38  2260.19  2270.78  2274.86  2280.68  2294.90  2294.23  2283.13  2276.44  2283.18  2286.88  2288.25  2288.76  2289.28  2289.51  2290.65  2293.24  2296.13  2298.47  2299.35  2300.93  2302.68  2304.76  2305.98  2307.08  2308.66  2309.96  2310.86  2311.49  2312.44  2312.92  2313.20  2312.90  2311.82  2315.00  2323.91  2340.15  2355.71  2373.57  2394.41  2408.97  2432.90  2462.28  2484.78  2507.03  2523.11  2544.27  2558.50  2571.80  2585.00  2600.30  2613.30  2633.20  2649.10  2661.20  2673.40  2688.60  2704.50  2724.00  2742.70  2763.80  2790.20  2811.80  2835.50  2865.20  2837.20  2808.90  2813.00  2816.10  2818.40  2820.60  2825.00  2831.30  2839.30  2849.90  2864.40  2872.80  2880.90  2886.50  2891.70  2901.40  2908.30  2910.20  2903.90  2893.30  2876.90  2866.60  2856.50  2839.00  2823.80  2805.50  2789.30  2776.20  2762.70  2749.80  2738.40  2729.80  2719.90  2711.90  2705.90  2701.90  2694.00  2685.20  2680.60  2670.90  2662.90  2654.30  2639.60  2635.50  2632.90  2630.20  2627.40  2625.30  2623.40  2620.90  2617.40  2608.80  2599.10  2589.10  2579.40  2569.20  2560.00  2549.40  2539.60  2530.00  2520.20  2510.30  2500.40
2611.00  2605.90  2602.50  2598.50  2594.70  2588.70  2582.80  2572.80  2563.50  2558.30  2551.00  2543.20  2535.20  2529.90  2524.60  2524.10  2533.83  2519.61  2506.75  2493.67  2476.75  2464.72  2447.00  2431.18  2416.47  2398.24  2364.76  2343.01  2324.29  2304.20  2292.36  2276.92  2263.38  2256.82  2252.89  2248.24  2243.57  2241.35  2245.93  2246.43  2261.13  2271.18  2268.80  2266.72  2278.22  2281.71  2273.60  2275.04  2280.47  2283.56  2284.09  2284.08  2284.23  2285.35  2287.16  2290.29  2293.49  2295.57  2297.53  2298.71  2300.66  2302.54  2304.31  2305.56  2307.02  2308.32  2309.41  2310.21  2310.93  2311.44  2311.38  2310.99  2311.49  2314.33  2330.41  2345.69  2362.88  2380.46  2398.19  2414.41  2443.53  2470.68  2489.83  2510.29  2530.78  2551.48  2560.20  2581.70  2598.10  2612.20  2625.60  2641.20  2657.10  2673.00  2684.60  2698.40  2714.00  2731.30  2749.80  2770.60  2788.90  2816.80  2847.10  2814.80  2787.80  2790.40  2795.30  2799.90  2803.60  2807.50  2812.80  2821.80  2829.30  2838.90  2851.80  2860.20  2867.80  2874.90  2880.70  2891.60  2901.60  2903.00  2896.60  2882.60  2867.80  2857.20  2847.30  2833.00  2816.60  2798.50  2784.20  2771.10  2758.90  2746.50  2735.80  2726.80  2717.90  2708.80  2699.40  2689.70  2680.20  2673.30  2666.20  2658.50  2651.30  2646.40  2639.90  2636.80  2634.20  2631.50  2629.50  2627.40  2624.90  2620.30  2613.80  2606.40  2600.00  2590.40  2580.80  2569.80  2560.00  2549.00  2537.50  2527.00  2516.90  2506.80  2495.00
2613.30  2609.80  2606.70  2603.10  2595.60  2586.90  2579.20  2568.60  2559.00  2548.60  2543.40  2531.50  2520.90  2520.00  2517.60  2518.80  2521.29  2513.18  2500.88  2486.95  2471.54  2460.59  2449.42  2436.24  2413.55  2398.31  2366.95  2349.00  2328.12  2307.08  2289.27  2271.41  2261.37  2254.67  2249.62  2245.14  2240.30  2234.86  2240.90  2243.07  2255.89  2259.04  2257.55  2252.11  2257.86  2265.54  2267.40  2273.50  2278.64  2280.51  2280.95  2280.71  2280.94  2282.31  2285.09  2289.04  2291.76  2293.58  2295.63  2297.73  2299.63  2301.57  2302.56  2303.91  2305.69  2306.72  2307.63  2308.66  2309.12  2309.70  2310.25  2310.86  2310.20  2319.79  2337.93  2353.71  2370.89  2389.46  2404.00  2424.59  2448.16  2471.84  2494.33  2514.50  2535.47  2548.90  2564.00  2578.80  2607.10  2621.20  2634.80  2648.50  2662.00  2680.60  2695.80  2717.50  2730.70  2745.30  2761.70  2782.10  2798.60  2824.80  2806.00  2772.50  2772.20  2776.10  2781.60  2786.50  2790.20  2795.20  2801.30  2810.00  2818.20  2827.30  2836.80  2845.00  2853.20  2860.50  2870.40  2881.90  2892.60  2896.60  2888.90  2875.40  2860.00  2851.20  2842.50  2827.10  2809.10  2793.20  2778.60  2765.80  2755.80  2739.90  2733.60  2727.20  2720.10  2709.90  2699.90  2691.00  2682.80  2674.90  2667.70  2660.40  2661.60  2656.70  2642.10  2638.40  2635.90  2633.90  2633.50  2629.10  2625.30  2620.90  2613.80  2605.60  2598.60  2590.10  2581.40  2571.30  2560.00  2549.00  2535.00  2522.60  2510.60  2498.30  2481.70
2617.00  2610.30  2605.90  2602.50  2591.80  2571.60  2564.40  2557.00  2546.80  2534.50  2525.70  2515.00  2507.20  2509.00  2510.00  2511.50  2510.47  2500.11  2489.82  2476.35  2463.08  2458.29  2450.74  2437.98  2419.51  2398.08  2369.15  2343.84  2326.98  2301.34  2285.63  2268.45  2257.30  2250.57  2245.31  2240.84  2233.92  2226.27  2226.46  2230.47  2237.65  2240.30  2239.74  2238.85  2245.35  2263.25  2265.30  2272.72  2277.26  2278.53  2278.14  2277.61  2278.23  2280.20  2283.56  2287.24  2289.95  2292.11  2294.05  2296.05  2297.81  2299.99  2300.97  2302.41  2303.97  2305.14  2306.02  2307.45  2308.08  2308.87  2309.10  2308.98  2312.70  2325.06  2342.47  2361.08  2381.07  2400.89  2410.95  2428.51  2452.61  2473.33  2494.92  2514.72  2534.84  2548.50  2567.10  2585.20  2608.20  2623.90  2639.50  2655.30  2669.90  2684.20  2700.00  2720.40  2736.90  2752.30  2767.90  2784.50  2800.70  2801.30  2758.50  2756.10  2759.20  2763.50  2770.10  2773.90  2777.00  2783.00  2790.60  2799.60  2807.70  2815.00  2823.10  2831.20  2838.80  2848.60  2860.30  2871.60  2882.20  2888.00  2883.20  2870.10  2855.80  2845.90  2835.30  2819.50  2800.90  2787.90  2771.90  2756.80  2746.70  2738.30  2732.60  2727.00  2722.60  2717.40  2703.70  2694.60  2686.60  2678.70  2676.10  2675.90  2664.50  2655.10  2648.50  2640.60  2638.50  2637.80  2637.80  2630.80  2625.70  2620.90  2613.30  2605.40  2595.90  2584.60  2575.20  2566.70  2556.90  2539.60  2525.10  2514.90  2506.20  2490.90  2475.00
2609.60  2603.50  2601.00  2589.20  2576.50  2566.10  2549.30  2541.90  2522.20  2514.20  2505.20  2499.50  2496.30  2497.80  2502.60  2504.00  2498.73  2493.46  2480.96  2468.68  2459.33  2455.08  2448.89  2437.09  2417.66  2392.94  2364.50  2341.74  2318.22  2301.13  2281.05  2264.42  2255.02  2247.25  2242.77  2236.42  2231.90  2221.89  2221.15  2219.74  2224.59  2230.71  2232.47  2235.38  2246.80  2259.26  2258.90  2272.46  2275.72  2275.57  2275.46  2275.69  2276.31  2277.91  2282.48  2285.65  2287.71  2290.32  2292.82  2294.55  2296.50  2298.57  2300.02  2301.29  2302.91  2304.23  2305.41  2306.04  2306.93  2307.56  2306.52  2309.51  2321.76  2332.99  2350.21  2371.03  2390.88  2402.57  2415.54  2434.20  2455.14  2477.09  2498.06  2518.29  2538.70  2554.60  2568.90  2584.20  2608.90  2624.80  2640.60  2656.40  2672.20  2687.90  2704.00  2720.80  2735.70  2752.70  2772.00  2783.30  2755.10  2742.30  2739.80  2740.40  2745.00  2752.50  2760.70  2762.60  2765.60  2772.00  2781.30  2789.30  2795.90  2802.90  2810.30  2821.10  2829.70  2838.00  2848.80  2860.80  2873.50  2881.70  2880.70  2866.20  2852.70  2840.40  2826.90  2812.20  2796.90  2784.50  2770.00  2756.90  2747.60  2739.10  2733.90  2729.00  2725.20  2720.10  2708.90  2699.50  2691.40  2683.20  2682.00  2678.80  2672.20  2657.60  2650.10  2648.70  2645.50  2647.00  2645.10  2635.00  2629.10  2623.90  2615.90  2604.40  2593.30  2582.10  2570.60  2560.70  2546.80  2533.10  2522.20  2511.20  2499.60  2483.70  2468.80
2602.10  2591.50  2584.40  2575.40  2559.20  2548.80  2532.70  2522.50  2506.40  2492.20  2492.20  2489.90  2485.80  2487.90  2494.50  2494.20  2483.39  2476.99  2472.70  2462.34  2457.89  2453.96  2444.99  2431.51  2409.65  2392.82  2372.42  2347.54  2319.13  2299.51  2280.80  2264.81  2254.53  2245.58  2241.00  2234.82  2228.47  2220.39  2218.82  2219.56  2220.34  2230.11  2229.65  2232.56  2244.95  2250.99  2257.59  2270.64  2272.75  2272.57  2272.89  2272.93  2274.57  2278.34  2281.62  2284.43  2286.78  2288.58  2290.62  2293.08  2294.89  2296.99  2298.32  2299.83  2301.75  2302.95  2303.91  2304.73  2305.31  2305.45  2308.22  2318.01  2328.87  2342.10  2363.99  2384.18  2398.56  2409.30  2426.79  2441.93  2461.73  2481.92  2504.18  2523.77  2536.70  2556.50  2569.70  2582.90  2609.60  2625.60  2641.60  2657.70  2673.70  2689.90  2707.20  2721.90  2736.10  2758.20  2767.00  2750.00  2734.30  2726.10  2726.50  2730.20  2735.30  2745.20  2752.80  2752.50  2755.70  2760.60  2770.10  2776.80  2783.50  2790.20  2796.80  2808.90  2816.50  2824.20  2833.10  2848.60  2865.70  2869.30  2872.40  2864.60  2851.40  2836.70  2823.90  2808.20  2795.40  2784.00  2769.70  2756.70  2748.00  2742.10  2735.90  2731.30  2726.00  2721.90  2715.10  2705.50  2696.40  2691.10  2688.40  2678.40  2666.10  2659.70  2656.30  2656.60  2656.40  2660.20  2651.70  2639.90  2633.30  2622.70  2613.30  2599.70  2587.50  2578.60  2565.30  2551.40  2537.90  2526.70  2515.00  2501.70  2489.30  2478.00  2461.30
2590.00  2582.40  2571.60  2560.00  2553.50  2545.20  2534.40  2501.70  2484.00  2475.70  2482.90  2480.40  2474.60  2479.00  2484.40  2481.90  2477.00  2468.70  2468.81  2463.47  2453.31  2445.48  2438.01  2423.43  2409.53  2395.62  2375.95  2349.48  2324.05  2301.94  2280.49  2263.79  2251.66  2244.87  2240.65  2234.09  2225.52  2218.18  2213.86  2211.44  2217.96  2219.70  2227.40  2226.92  2236.35  2246.80  2258.54  2266.54  2268.58  2270.16  2269.38  2271.38  2274.11  2277.97  2280.88  2284.33  2285.57  2287.01  2289.35  2291.16  2293.20  2294.99  2296.83  2298.17  2300.15  2301.36  2301.69  2303.44  2302.73  2304.28  2311.36  2326.31  2338.82  2349.18  2376.80  2394.20  2404.08  2417.36  2437.59  2450.89  2469.69  2488.63  2511.32  2522.10  2537.10  2557.00  2570.40  2586.40  2611.40  2627.80  2643.80  2659.80  2675.80  2692.90  2708.50  2723.30  2738.60  2753.30  2748.70  2726.90  2717.70  2712.10  2717.40  2722.80  2731.50  2739.90  2743.30  2742.50  2746.20  2750.00  2760.30  2765.90  2772.40  2778.10  2785.00  2793.70  2800.20  2807.80  2814.90  2824.90  2841.80  2855.80  2862.90  2863.40  2851.40  2838.00  2826.30  2813.10  2797.50  2781.50  2768.40  2756.90  2749.60  2743.80  2738.50  2734.20  2730.10  2729.10  2720.70  2720.70  2701.80  2693.30  2683.90  2676.30  2670.60  2665.40  2662.90  2662.50  2663.30  2659.00  2651.50  2641.70  2627.20  2616.20  2605.70  2592.30  2579.20  2567.30  2556.90  2548.50  2535.70  2521.70  2509.00  2495.60  2483.90  2474.40  2465.20
2576.00  2568.30  2559.40  2553.50  2548.20  2541.80  2524.90  2486.70  2469.00  2463.20  2469.10  2468.30  2462.10  2464.00  2469.00  2468.20  2463.70  2469.61  2465.24  2466.42  2456.91  2442.64  2434.41  2419.17  2405.06  2396.55  2376.43  2352.85  2329.25  2303.13  2283.47  2265.49  2253.31  2245.47  2240.92  2230.74  2222.83  2219.29  2217.08  2214.47  2210.75  2212.72  2220.47  2219.95  2227.25  2238.23  2254.44  2261.99  2263.92  2265.70  2267.53  2271.25  2274.08  2277.35  2279.73  2281.83  2283.65  2285.08  2287.54  2289.34  2290.97  2293.01  2294.54  2296.15  2297.80  2297.92  2299.51  2302.02  2302.46  2310.55  2322.55  2337.69  2349.99  2362.99  2387.79  2399.21  2409.42  2430.51  2445.09  2458.33  2475.47  2496.35  2518.33  2525.70  2541.50  2559.20  2575.40  2597.40  2614.30  2630.10  2645.90  2662.00  2678.70  2695.00  2710.60  2724.90  2738.10  2736.90  2727.70  2708.80  2702.40  2701.30  2708.40  2715.90  2722.50  2728.80  2729.90  2730.70  2734.60  2739.40  2747.30  2753.20  2762.20  2768.60  2772.70  2778.90  2784.90  2791.00  2799.70  2807.30  2838.70  2846.90  2853.80  2855.10  2850.30  2840.00  2823.60  2806.30  2789.00  2778.00  2766.40  2759.70  2755.00  2749.30  2743.90  2738.20  2738.30  2735.60  2729.00  2720.10  2699.90  2690.80  2681.70  2677.10  2673.40  2670.60  2668.10  2666.00  2662.60  2658.30  2649.80  2641.30  2629.50  2615.40  2600.70  2587.60  2575.50  2564.40  2553.90  2543.00  2533.40  2519.10  2502.90  2488.40  2477.90  2469.40  2463.90
2564.70  2554.60  2545.40  2546.20  2542.00  2524.30  2487.90  2469.00  2455.70  2450.90  2452.80  2450.90  2447.70  2448.10  2447.40  2447.80  2452.20  2465.99  2459.03  2457.64  2444.93  2435.48  2425.66  2411.70  2403.47  2395.08  2380.31  2356.66  2334.65  2308.80  2286.16  2268.11  2257.32  2247.39  2239.20  2229.75  2220.79  2218.69  2213.78  2209.87  2209.30  2208.47  2209.42  2207.67  2214.86  2239.47  2252.36  2255.22  2260.01  2263.49  2265.41  2269.43  2273.13  2275.06  2277.79  2278.66  2280.98  2283.43  2285.41  2285.18  2289.00  2290.95  2292.24  2293.69  2294.72  2297.21  2295.43  2301.98  2310.59  2325.61  2336.40  2348.12  2361.90  2379.08  2394.87  2404.09  2421.89  2436.73  2454.07  2467.14  2486.02  2503.13  2516.60  2532.20  2547.90  2564.60  2580.70  2603.30  2620.00  2633.40  2648.80  2664.00  2680.00  2696.50  2711.70  2724.40  2728.50  2721.40  2706.60  2693.50  2687.70  2692.40  2698.70  2702.70  2709.50  2713.80  2714.00  2718.50  2722.40  2727.50  2732.00  2738.30  2749.00  2757.40  2760.70  2764.20  2767.90  2773.70  2783.60  2794.90  2809.00  2825.70  2842.30  2840.80  2842.30  2840.00  2820.00  2799.10  2786.50  2779.80  2774.40  2768.10  2760.80  2754.80  2749.50  2745.90  2743.50  2734.70  2724.10  2710.60  2699.80  2692.30  2683.60  2675.40  2669.10  2665.60  2662.80  2662.30  2662.30  2657.70  2648.60  2639.80  2628.60  2614.00  2599.80  2586.10  2572.20  2557.50  2544.10  2534.60  2525.80  2516.30  2502.80  2482.70  2474.70  2467.00  2460.40
2547.70  2534.40  2527.90  2534.00  2514.60  2494.90  2462.50  2451.20  2443.30  2434.60  2433.80  2431.60  2431.10  2428.50  2429.40  2434.90  2443.20  2451.85  2445.89  2437.92  2435.62  2433.96  2421.49  2403.26  2396.32  2389.90  2379.36  2359.19  2334.18  2309.95  2291.28  2270.02  2257.84  2253.03  2244.10  2228.45  2218.90  2209.88  2207.90  2208.63  2208.42  2208.54  2205.60  2205.58  2215.25  2240.42  2247.34  2253.22  2257.41  2260.83  2264.12  2267.31  2271.59  2272.99  2274.99  2276.02  2278.76  2281.04  2282.41  2282.61  2286.51  2287.95  2290.31  2291.00  2290.83  2292.33  2299.70  2312.63  2326.70  2339.71  2352.56  2363.75  2377.93  2393.44  2402.58  2415.59  2431.36  2446.36  2463.18  2478.39  2494.22  2511.41  2523.20  2538.40  2554.70  2574.20  2588.60  2607.20  2623.30  2635.40  2650.40  2666.00  2682.70  2696.80  2708.90  2707.30  2720.30  2704.80  2687.40  2677.00  2674.30  2681.40  2685.40  2690.00  2694.90  2696.70  2697.80  2703.50  2708.80  2711.50  2717.20  2725.40  2733.10  2740.00  2744.60  2746.10  2750.20  2758.80  2768.50  2781.50  2791.90  2808.30  2822.00  2824.70  2828.50  2832.10  2817.40  2797.90  2787.80  2782.50  2780.80  2775.90  2767.10  2758.80  2755.50  2744.50  2736.50  2727.40  2717.90  2711.00  2703.00  2695.20  2682.10  2674.00  2666.30  2659.60  2658.70  2658.20  2660.90  2654.00  2640.10  2628.20  2620.90  2610.00  2598.20  2581.90  2560.70  2548.60  2537.30  2528.20  2519.90  2506.30  2496.10  2481.00  2474.40  2467.60  2460.30
2532.30  2517.80  2503.00  2492.40  2477.10  2457.80  2446.60  2440.00  2431.50  2420.10  2417.10  2414.50  2415.10  2412.90  2416.00  2421.90  2431.70  2442.15  2439.28  2433.19  2428.03  2424.47  2409.91  2394.56  2387.85  2384.51  2373.84  2353.52  2333.47  2308.10  2290.81  2269.80  2254.36  2246.53  2236.82  2226.18  2213.93  2207.47  2208.73  2208.56  2208.69  2208.87  2206.69  2211.21  2222.27  2235.29  2243.53  2248.68  2253.83  2255.93  2260.42  2262.89  2265.39  2268.35  2271.73  2274.85  2277.69  2278.55  2279.55  2280.03  2282.76  2283.61  2281.16  2283.92  2288.07  2294.44  2311.96  2326.46  2341.94  2355.31  2367.84  2377.50  2394.05  2402.72  2413.20  2425.42  2443.30  2457.92  2472.52  2487.89  2503.17  2518.82  2532.80  2548.20  2564.60  2582.10  2595.90  2610.20  2625.00  2640.00  2656.40  2669.90  2680.80  2687.70  2695.50  2688.60  2685.50  2681.20  2671.90  2663.80  2665.00  2669.30  2673.00  2676.10  2682.30  2683.00  2682.10  2687.10  2691.80  2695.30  2701.30  2708.30  2713.40  2720.00  2725.00  2728.60  2737.50  2748.10  2757.50  2769.50  2782.70  2793.40  2800.00  2804.50  2807.70  2812.80  2811.90  2796.20  2788.60  2786.30  2784.10  2780.60  2773.10  2762.40  2750.00  2737.30  2729.10  2722.10  2715.60  2717.10  2717.70  2703.80  2682.40  2671.20  2660.80  2657.80  2655.90  2655.00  2656.00  2647.50  2632.40  2616.80  2608.50  2602.50  2592.10  2578.40  2557.00  2544.80  2533.10  2522.30  2508.80  2496.50  2485.50  2476.60  2470.70  2464.80  2458.80
2521.60  2505.70  2490.00  2469.60  2458.00  2448.70  2437.70  2430.00  2421.20  2413.40  2406.70  2401.90  2403.90  2400.50  2402.70  2411.60  2419.80  2420.70  2430.09  2418.88  2412.25  2404.42  2394.54  2373.61  2374.78  2372.51  2364.57  2357.09  2334.08  2309.12  2288.66  2269.29  2253.86  2244.97  2235.62  2225.18  2212.39  2206.83  2208.80  2209.01  2209.31  2209.39  2209.63  2215.34  2221.41  2232.10  2239.62  2245.60  2249.83  2252.25  2257.02  2257.71  2260.11  2263.44  2267.24  2272.21  2275.35  2274.50  2275.51  2277.03  2277.67  2277.93  2278.64  2281.70  2291.41  2304.20  2325.03  2338.48  2349.82  2364.88  2379.90  2391.06  2403.06  2414.08  2426.24  2439.17  2455.34  2466.46  2480.83  2496.82  2512.14  2526.00  2540.90  2557.40  2571.60  2585.10  2600.90  2616.90  2631.90  2645.90  2656.40  2662.20  2667.30  2667.10  2667.60  2665.10  2658.60  2650.70  2648.10  2648.60  2653.30  2657.30  2660.30  2661.20  2666.60  2668.70  2664.60  2664.20  2668.20  2676.80  2685.40  2691.00  2695.20  2702.10  2711.80  2721.20  2729.40  2737.10  2747.40  2757.40  2763.90  2769.00  2776.30  2781.70  2787.90  2791.60  2791.30  2789.70  2788.00  2792.30  2792.60  2789.30  2777.90  2757.70  2747.30  2740.50  2727.70  2716.00  2707.30  2706.80  2707.50  2699.60  2684.00  2670.60  2658.70  2656.20  2653.60  2651.70  2649.40  2645.00  2631.40  2610.30  2594.20  2587.20  2579.20  2565.80  2549.00  2536.00  2521.20  2507.60  2497.80  2493.00  2485.20  2476.20  2468.30  2461.10  2456.30
2499.40  2487.00  2470.20  2458.90  2450.80  2441.80  2431.00  2421.40  2410.40  2403.20  2395.40  2390.40  2389.50  2385.90  2390.00  2396.60  2395.20  2394.20  2386.23  2374.64  2371.95  2379.19  2374.68  2352.16  2356.13  2357.61  2351.73  2348.61  2335.59  2317.13  2294.33  2275.58  2255.45  2244.89  2233.93  2225.42  2210.26  2208.08  2209.79  2210.15  2209.63  2209.04  2212.27  2216.52  2220.87  2229.34  2236.14  2241.60  2244.60  2247.91  2251.28  2253.21  2255.73  2258.34  2262.72  2269.88  2271.68  2271.15  2272.33  2272.75  2272.58  2273.06  2277.61  2285.00  2293.59  2313.48  2332.55  2353.06  2366.62  2380.90  2395.09  2405.27  2413.50  2428.80  2440.49  2453.52  2467.49  2481.66  2491.64  2505.35  2518.95  2534.50  2548.30  2561.40  2576.20  2590.70  2604.80  2618.10  2629.20  2632.20  2637.20  2643.20  2644.10  2642.80  2641.50  2644.20  2633.90  2623.60  2627.00  2635.60  2642.00  2644.80  2645.30  2647.30  2648.10  2648.30  2646.80  2646.80  2653.60  2664.30  2671.40  2676.20  2681.40  2691.60  2699.80  2708.20  2715.70  2723.10  2730.60  2737.70  2745.60  2753.60  2761.00  2766.60  2771.20  2777.00  2778.00  2784.20  2793.60  2798.70  2804.10  2796.00  2779.80  2757.70  2739.40  2726.30  2717.60  2709.20  2700.40  2697.00  2697.60  2696.20  2680.00  2666.90  2658.00  2654.00  2651.60  2648.30  2641.40  2636.60  2628.10  2597.70  2580.60  2573.20  2568.30  2556.80  2544.20  2526.50  2513.00  2502.90  2498.40  2489.70  2482.40  2475.80  2469.40  2463.50  2461.90
2490.90  2482.00  2472.50  2463.20  2444.90  2437.30  2425.30  2410.30  2399.70  2391.50  2383.30  2378.80  2373.20  2371.40  2377.50  2377.40  2372.60  2355.00  2335.63  2328.36  2326.44  2343.40  2338.46  2347.70  2349.32  2346.70  2339.00  2339.27  2333.71  2314.29  2292.20  2273.64  2255.90  2245.79  2236.08  2227.10  2211.92  2207.76  2209.45  2208.84  2208.81  2210.17  2213.90  2216.42  2220.54  2226.88  2231.72  2236.40  2239.56  2243.13  2245.79  2247.35  2250.02  2253.56  2261.83  2265.39  2265.50  2266.71  2267.33  2266.58  2266.86  2271.15  2277.88  2285.80  2297.91  2326.28  2344.79  2365.15  2377.60  2395.12  2407.46  2413.34  2425.22  2441.58  2452.59  2469.71  2483.01  2493.22  2503.09  2514.80  2529.00  2542.10  2555.40  2566.20  2579.30  2591.80  2601.10  2610.50  2613.70  2621.30  2617.20  2625.10  2624.30  2618.60  2615.00  2612.80  2605.80  2607.40  2610.40  2617.20  2623.40  2627.30  2626.70  2624.80  2620.70  2627.30  2630.50  2635.60  2641.50  2648.50  2654.50  2660.40  2666.90  2680.10  2689.70  2695.70  2702.80  2710.60  2716.90  2725.40  2733.90  2739.00  2745.10  2754.40  2757.00  2764.00  2776.60  2790.90  2801.10  2810.30  2803.20  2788.40  2768.20  2746.30  2728.40  2717.10  2710.40  2703.90  2696.80  2691.60  2689.10  2688.90  2681.10  2667.10  2657.50  2653.00  2648.50  2642.90  2634.70  2626.50  2621.00  2595.70  2576.90  2566.30  2556.40  2546.80  2535.70  2522.80  2513.60  2507.20  2501.60  2496.40  2488.80  2481.00  2474.20  2468.30  2464.90
2483.40  2479.30  2470.30  2458.50  2436.00  2424.10  2411.40  2397.10  2386.70  2378.40  2370.00  2365.60  2359.20  2358.00  2363.20  2359.50  2337.80  2322.70  2295.92  2304.36  2309.46  2322.31  2331.60  2337.52  2341.67  2331.27  2330.25  2330.02  2325.39  2302.74  2289.70  2264.39  2252.52  2243.09  2235.83  2223.60  2212.55  2211.17  2212.09  2210.07  2209.52  2211.43  2214.25  2216.63  2220.64  2225.20  2228.51  2231.99  2234.97  2238.20  2239.22  2240.34  2244.41  2250.26  2255.33  2257.29  2261.71  2262.58  2260.29  2261.44  2264.84  2272.97  2276.92  2293.21  2317.38  2344.17  2358.36  2374.67  2388.70  2403.64  2415.98  2424.32  2439.38  2452.44  2464.07  2479.02  2496.88  2502.98  2514.17  2525.51  2537.00  2549.50  2561.50  2569.80  2577.40  2580.60  2588.90  2591.80  2593.70  2596.40  2600.20  2601.00  2601.80  2595.40  2591.20  2588.40  2587.60  2592.60  2595.30  2602.70  2604.80  2599.10  2597.50  2605.90  2607.10  2615.40  2619.10  2622.10  2625.00  2628.40  2634.00  2641.40  2653.90  2669.20  2680.10  2685.50  2692.00  2698.40  2706.80  2715.30  2723.20  2730.50  2737.50  2747.70  2759.10  2771.30  2776.90  2783.00  2789.90  2800.70  2795.40  2772.50  2752.80  2734.80  2719.00  2710.40  2703.70  2698.20  2693.40  2687.40  2682.40  2680.30  2678.20  2668.20  2655.80  2649.00  2643.40  2636.20  2627.30  2618.10  2609.60  2595.70  2576.10  2562.80  2550.90  2537.80  2524.20  2517.50  2513.60  2508.90  2504.10  2498.60  2488.80  2478.40  2473.10  2467.90  2462.60
2475.20  2465.50  2453.60  2442.60  2429.10  2412.90  2399.90  2386.10  2375.10  2366.20  2357.70  2352.80  2349.50  2347.20  2348.80  2336.30  2320.40  2307.60  2279.42  2284.00  2298.90  2326.32  2339.98  2329.78  2318.98  2316.77  2321.96  2319.58  2314.05  2297.80  2276.98  2258.49  2247.42  2239.62  2232.97  2223.26  2211.59  2209.32  2215.13  2213.16  2211.17  2212.59  2214.73  2216.35  2220.00  2223.10  2225.78  2228.19  2230.42  2232.29  2233.49  2236.40  2240.22  2248.26  2251.74  2253.86  2256.69  2255.70  2254.94  2260.12  2270.95  2282.43  2295.55  2317.85  2339.93  2359.40  2378.06  2391.17  2404.00  2413.67  2425.15  2434.41  2449.26  2463.20  2475.76  2491.97  2502.02  2514.22  2526.10  2532.40  2542.60  2554.80  2561.80  2563.80  2563.70  2568.20  2573.80  2576.00  2577.10  2579.30  2580.50  2581.10  2578.30  2574.30  2571.30  2569.80  2571.20  2577.10  2578.10  2579.40  2583.70  2584.60  2586.30  2591.00  2595.10  2603.20  2607.10  2606.50  2607.10  2610.80  2617.50  2628.00  2640.60  2654.80  2659.70  2674.50  2683.10  2690.10  2700.20  2710.80  2720.80  2734.60  2743.70  2750.10  2756.60  2764.30  2770.50  2775.60  2778.20  2789.60  2784.60  2764.80  2746.20  2728.60  2712.70  2703.40  2697.60  2692.90  2689.20  2684.40  2677.80  2671.90  2668.60  2659.00  2649.20  2638.90  2634.50  2628.50  2619.20  2611.70  2604.40  2589.70  2570.60  2556.90  2544.80  2530.90  2518.00  2513.60  2509.90  2506.00  2501.40  2495.40  2486.90  2477.20  2468.00  2462.80  2458.10
2466.80  2457.40  2445.40  2433.30  2422.00  2404.20  2390.70  2378.00  2366.50  2357.70  2349.30  2341.40  2338.80  2337.30  2329.10  2316.60  2302.70  2293.30  2260.83  2270.92  2280.90  2314.05  2331.18  2298.76  2301.28  2305.46  2308.63  2312.07  2314.19  2293.35  2271.60  2254.66  2243.29  2235.55  2229.62  2224.25  2218.17  2214.25  2218.33  2214.27  2212.16  2212.68  2213.84  2216.58  2219.60  2222.92  2225.56  2226.44  2227.49  2227.83  2228.94  2231.80  2238.63  2242.81  2243.69  2249.17  2248.81  2248.17  2254.68  2274.47  2289.59  2300.64  2318.18  2337.00  2353.35  2373.45  2389.61  2404.46  2415.88  2422.43  2435.71  2449.00  2459.68  2472.34  2487.04  2500.00  2511.40  2524.14  2528.88  2540.40  2546.30  2546.70  2551.20  2552.20  2550.30  2552.90  2555.80  2559.60  2561.80  2559.20  2561.20  2560.70  2559.90  2558.50  2557.20  2557.20  2557.90  2561.00  2563.20  2565.60  2569.70  2574.50  2576.40  2581.10  2588.10  2592.20  2594.90  2594.30  2594.80  2601.10  2610.50  2621.20  2631.40  2640.30  2649.20  2662.30  2672.30  2684.40  2696.80  2708.20  2719.00  2728.60  2734.60  2742.70  2749.50  2758.40  2763.70  2769.10  2776.30  2790.50  2779.30  2759.70  2736.30  2720.10  2704.50  2694.60  2692.40  2690.20  2684.50  2680.10  2673.30  2666.50  2661.20  2653.10  2643.50  2634.90  2626.10  2620.40  2611.60  2603.20  2593.80  2576.50  2562.00  2549.00  2537.30  2526.10  2516.30  2509.50  2505.50  2501.80  2493.80  2483.20  2478.50  2470.30  2464.00  2458.20  2454.20
2460.50  2450.20  2441.90  2429.90  2419.20  2398.70  2379.40  2370.00  2358.60  2348.90  2341.00  2334.50  2329.80  2327.90  2317.70  2302.60  2287.60  2278.10  2250.42  2253.06  2262.59  2267.93  2286.49  2286.73  2286.27  2300.97  2307.20  2308.45  2313.76  2298.62  2273.99  2255.46  2241.17  2232.48  2225.13  2224.56  2220.21  2220.77  2220.57  2214.30  2209.62  2209.42  2210.09  2210.92  2212.55  2215.66  2215.24  2217.26  2222.78  2224.89  2225.29  2227.86  2233.05  2233.20  2240.28  2243.52  2240.76  2247.15  2260.65  2274.44  2298.20  2315.17  2334.04  2350.36  2372.37  2385.93  2398.36  2410.43  2423.47  2436.85  2447.54  2459.47  2472.64  2483.49  2498.79  2507.48  2520.11  2523.58  2528.70  2530.90  2536.60  2538.10  2535.30  2535.70  2531.80  2533.50  2538.60  2543.70  2542.20  2540.60  2542.40  2545.20  2548.00  2546.40  2544.70  2543.80  2548.70  2547.10  2548.60  2551.30  2558.00  2564.50  2568.10  2573.00  2576.30  2579.40  2583.60  2584.50  2587.70  2594.70  2604.90  2613.60  2621.80  2630.00  2641.40  2652.80  2663.60  2678.40  2690.80  2702.40  2712.00  2721.40  2726.90  2734.40  2742.10  2753.30  2763.60  2772.60  2781.00  2791.80  2775.00  2750.00  2731.50  2707.10  2693.70  2687.00  2686.90  2690.10  2682.40  2672.50  2665.90  2660.30  2649.30  2640.80  2634.10  2620.00  2614.30  2605.40  2597.30  2590.00  2577.90  2569.50  2557.30  2545.30  2535.50  2525.90  2516.80  2508.60  2501.10  2492.10  2480.60  2475.30  2471.50  2465.80  2457.00  2453.50  2449.90
2450.40  2441.70  2430.40  2417.90  2403.10  2381.10  2370.00  2360.60  2351.90  2340.70  2331.10  2324.20  2320.70  2319.10  2304.10  2281.40  2270.00  2258.30  2245.60  2240.45  2243.78  2245.39  2246.51  2255.67  2264.86  2280.39  2296.35  2308.68  2310.18  2302.67  2278.80  2257.29  2242.16  2233.41  2224.39  2221.53  2221.20  2223.60  2225.65  2213.28  2207.85  2209.43  2210.98  2212.48  2211.18  2208.97  2208.94  2208.64  2214.72  2217.66  2219.94  2222.26  2225.70  2232.80  2240.03  2238.13  2242.77  2250.84  2265.13  2283.97  2304.14  2319.28  2342.87  2363.79  2379.82  2391.06  2395.95  2409.82  2427.13  2441.57  2454.19  2465.74  2478.22  2489.46  2499.71  2507.20  2514.47  2519.60  2515.80  2518.90  2525.00  2523.70  2524.70  2518.90  2518.30  2526.00  2535.00  2540.50  2536.50  2532.60  2532.60  2536.40  2536.90  2536.10  2535.00  2535.20  2536.40  2534.80  2536.00  2538.00  2542.40  2551.50  2554.80  2559.70  2563.10  2567.00  2571.20  2574.70  2578.80  2586.70  2596.90  2604.50  2613.60  2623.90  2634.50  2645.00  2654.70  2665.50  2678.40  2690.10  2701.00  2712.50  2717.30  2728.20  2740.30  2753.30  2768.20  2779.20  2786.40  2785.40  2767.90  2739.10  2718.90  2696.20  2686.80  2680.70  2679.60  2682.20  2679.20  2665.70  2657.00  2646.50  2637.80  2630.50  2623.20  2611.40  2600.80  2592.90  2585.60  2577.90  2570.80  2563.80  2555.50  2544.80  2535.10  2526.40  2518.10  2508.60  2498.30  2488.30  2479.10  2472.90  2466.80  2461.60  2454.80  2448.70  2444.50
2442.50  2434.10  2421.40  2407.80  2391.40  2376.70  2364.40  2352.80  2344.10  2333.00  2321.40  2312.30  2304.10  2301.30  2289.30  2269.30  2256.50  2245.50  2237.00  2236.60  2235.70  2232.98  2234.60  2243.23  2251.50  2268.63  2293.76  2299.07  2303.27  2305.62  2289.54  2262.97  2248.02  2235.57  2229.56  2223.08  2221.28  2218.69  2220.85  2215.67  2211.69  2217.45  2219.14  2221.45  2218.16  2216.64  2209.01  2206.72  2209.48  2218.27  2222.10  2223.43  2230.30  2235.20  2241.71  2246.66  2254.13  2262.80  2282.14  2295.48  2310.51  2334.79  2349.82  2368.09  2373.09  2382.90  2395.36  2411.27  2432.38  2443.93  2450.42  2462.17  2474.64  2485.38  2501.16  2511.34  2510.36  2497.90  2496.20  2498.30  2507.80  2505.10  2499.50  2506.10  2515.80  2523.40  2531.10  2532.60  2529.50  2524.10  2523.40  2528.70  2528.40  2527.70  2526.60  2525.00  2524.80  2524.50  2525.60  2527.20  2532.60  2535.80  2537.90  2540.00  2549.00  2555.50  2558.90  2562.80  2568.60  2577.20  2587.10  2597.30  2607.20  2616.70  2626.20  2637.30  2647.10  2657.80  2673.00  2686.00  2697.00  2705.60  2713.10  2722.40  2734.10  2754.60  2778.30  2783.90  2784.70  2779.80  2750.80  2728.00  2708.80  2692.10  2684.30  2677.90  2670.50  2671.90  2669.30  2657.20  2645.40  2637.20  2631.20  2623.80  2613.40  2603.10  2592.40  2583.70  2577.10  2572.20  2568.60  2562.10  2553.60  2544.10  2534.40  2525.30  2518.70  2509.60  2500.10  2482.70  2475.50  2470.20  2463.90  2457.60  2450.70  2444.50  2440.30
2440.50  2426.70  2414.30  2402.60  2390.60  2375.80  2363.90  2352.50  2338.70  2323.80  2311.60  2300.90  2288.50  2282.00  2272.90  2257.40  2248.30  2236.70  2229.80  2228.04  2227.89  2227.95  2234.06  2237.26  2244.43  2265.78  2286.69  2295.35  2299.69  2302.01  2298.74  2273.79  2257.80  2242.41  2239.43  2233.42  2229.60  2222.62  2219.49  2211.49  2207.27  2212.30  2216.92  2207.75  2209.87  2212.79  2202.54  2199.67  2202.42  2213.07  2225.40  2231.34  2236.98  2242.96  2248.95  2256.14  2267.76  2281.03  2293.21  2302.49  2318.66  2344.10  2356.63  2359.33  2366.71  2382.64  2402.57  2414.35  2428.20  2436.45  2443.69  2457.01  2471.82  2477.93  2486.22  2496.08  2486.60  2485.00  2483.80  2484.20  2494.10  2492.70  2496.50  2502.80  2512.50  2523.40  2524.30  2524.80  2522.10  2517.50  2520.60  2520.50  2519.70  2518.40  2517.30  2515.00  2512.70  2512.80  2514.20  2514.20  2516.00  2518.10  2523.00  2528.70  2536.40  2544.20  2548.70  2552.50  2558.80  2566.50  2576.40  2586.70  2597.70  2607.70  2618.10  2632.10  2645.70  2657.80  2673.00  2684.20  2692.50  2700.70  2711.70  2722.40  2734.90  2752.30  2774.10  2781.60  2782.20  2769.40  2746.40  2723.40  2702.70  2689.20  2682.50  2674.70  2665.60  2659.70  2660.70  2646.80  2634.80  2628.10  2623.50  2615.50  2600.80  2594.70  2585.00  2576.10  2569.60  2565.00  2561.80  2555.30  2543.30  2533.60  2526.10  2522.70  2509.90  2496.50  2482.20  2476.60  2473.00  2465.90  2461.10  2452.90  2446.30  2440.30  2436.20
2445.50  2433.90  2415.00  2397.20  2386.00  2374.70  2362.20  2348.50  2333.60  2319.20  2304.80  2290.50  2277.40  2268.20  2257.60  2248.50  2239.50  2231.50  2224.10  2221.02  2221.34  2220.98  2225.46  2232.72  2241.67  2257.01  2273.39  2289.30  2293.90  2293.03  2296.33  2284.85  2269.99  2255.40  2243.59  2234.03  2225.21  2219.27  2213.02  2205.76  2207.15  2208.51  2204.83  2189.21  2191.42  2200.24  2193.14  2189.68  2193.67  2207.10  2218.32  2227.97  2240.59  2249.93  2255.85  2262.58  2271.70  2283.04  2293.93  2307.96  2322.18  2340.45  2345.52  2349.54  2363.61  2382.85  2395.96  2409.89  2424.22  2432.27  2446.50  2456.24  2464.41  2472.14  2477.33  2475.60  2473.60  2472.20  2473.90  2475.90  2485.10  2487.30  2492.30  2499.60  2508.70  2515.00  2516.00  2516.70  2515.80  2510.30  2510.00  2506.10  2505.10  2504.10  2503.40  2502.80  2500.80  2499.90  2501.50  2499.10  2501.00  2504.20  2510.10  2518.30  2526.30  2533.50  2538.90  2543.00  2548.80  2556.80  2567.80  2580.70  2591.70  2603.00  2615.90  2631.00  2644.90  2654.60  2663.90  2674.10  2680.00  2688.50  2700.70  2716.20  2734.50  2751.80  2770.20  2780.40  2780.80  2764.30  2745.70  2723.90  2703.10  2685.70  2675.40  2670.40  2662.60  2653.10  2654.40  2637.90  2624.70  2614.30  2608.40  2600.10  2591.80  2587.40  2581.00  2568.40  2562.20  2553.80  2545.10  2537.70  2530.10  2518.80  2515.00  2513.40  2501.60  2491.50  2486.70  2482.50  2476.50  2468.70  2461.20  2452.10  2442.50  2438.30  2434.20
2455.30  2440.90  2421.90  2405.10  2398.00  2385.10  2360.10  2345.20  2329.10  2314.50  2299.60  2284.90  2270.30  2259.10  2251.50  2242.90  2233.50  2223.80  2219.50  2222.50  2214.00  2216.53  2220.25  2228.22  2239.60  2265.19  2271.97  2278.86  2282.90  2280.90  2285.44  2278.99  2265.15  2253.40  2231.12  2216.33  2212.21  2209.69  2206.28  2199.19  2199.79  2200.98  2193.79  2174.89  2172.19  2175.75  2182.93  2178.27  2180.86  2192.34  2204.44  2216.12  2229.66  2241.44  2251.89  2258.73  2267.51  2275.93  2291.16  2306.26  2320.78  2331.02  2329.46  2337.62  2356.09  2373.53  2390.90  2404.52  2417.14  2428.47  2441.06  2451.01  2460.15  2464.75  2465.10  2463.90  2461.80  2462.30  2466.90  2474.20  2477.20  2482.50  2488.10  2492.90  2498.60  2503.20  2506.00  2506.10  2505.20  2504.00  2498.80  2493.00  2490.10  2490.10  2490.00  2489.80  2490.70  2489.90  2491.30  2490.50  2492.50  2498.00  2505.70  2513.10  2521.10  2527.50  2531.80  2535.80  2540.70  2551.50  2564.70  2577.90  2589.20  2599.50  2612.40  2625.00  2639.60  2647.80  2655.60  2664.10  2671.70  2679.00  2691.00  2706.10  2720.60  2745.70  2763.00  2772.50  2778.30  2762.70  2741.50  2723.70  2703.50  2680.80  2666.30  2661.40  2656.20  2645.60  2642.00  2629.90  2612.70  2599.30  2595.70  2589.40  2583.00  2577.90  2570.10  2559.60  2548.50  2537.70  2533.20  2526.50  2518.60  2512.70  2507.90  2501.70  2494.90  2486.60  2477.80  2474.40  2468.90  2461.30  2455.40  2448.20  2439.70  2437.00  2434.50
2449.70  2436.20  2425.70  2421.70  2413.10  2398.50  2377.30  2345.80  2325.90  2310.70  2296.70  2282.10  2266.40  2254.60  2245.80  2238.10  2230.90  2221.40  2218.10  2219.80  2204.59  2212.25  2219.42  2229.00  2237.82  2257.31  2265.72  2268.19  2271.06  2271.68  2267.88  2265.90  2255.25  2241.10  2212.11  2197.84  2194.03  2194.64  2194.61  2196.41  2189.96  2178.50  2172.43  2164.41  2155.02  2152.74  2161.61  2165.15  2171.00  2180.42  2192.47  2204.42  2216.53  2224.22  2228.84  2242.62  2251.69  2268.61  2283.68  2298.32  2316.00  2316.53  2320.93  2328.69  2343.17  2364.46  2383.27  2399.56  2411.13  2422.33  2432.32  2444.56  2450.69  2452.80  2454.70  2453.50  2451.80  2456.40  2463.10  2465.90  2471.30  2477.10  2481.10  2487.60  2489.30  2493.70  2495.80  2493.80  2491.40  2489.50  2485.20  2480.00  2476.80  2477.00  2477.30  2478.00  2478.80  2480.30  2481.20  2482.40  2488.00  2497.50  2505.30  2512.60  2517.10  2521.70  2526.00  2529.90  2536.10  2547.20  2560.70  2571.00  2580.40  2589.40  2601.90  2613.50  2627.80  2642.10  2651.30  2661.60  2668.40  2674.10  2684.10  2697.10  2714.00  2736.40  2754.80  2765.70  2771.80  2761.40  2743.40  2723.70  2703.70  2682.80  2661.40  2653.30  2644.80  2636.20  2630.70  2618.10  2602.20  2598.50  2593.80  2580.50  2573.00  2564.30  2558.20  2550.10  2540.00  2533.50  2525.70  2518.30  2512.20  2506.80  2500.80  2494.60  2488.60  2482.10  2474.70  2467.50  2461.60  2454.00  2448.90  2443.10  2438.60  2435.90  2433.20
2433.20  2436.40  2439.60  2426.40  2413.90  2397.80  2379.90  2344.60  2323.90  2305.40  2290.40  2276.60  2264.10  2249.90  2241.70  2234.40  2226.30  2218.30  2213.40  2217.20  2219.10  2209.35  2221.84  2237.04  2238.54  2246.58  2250.11  2250.31  2250.85  2252.13  2252.09  2252.37  2244.41  2231.14  2191.65  2178.99  2177.10  2181.87  2181.94  2183.96  2178.23  2165.34  2155.38  2149.18  2143.14  2140.55  2141.95  2149.14  2158.83  2169.49  2183.52  2194.08  2201.75  2205.47  2214.31  2229.94  2240.23  2257.79  2277.56  2293.97  2306.88  2304.68  2310.41  2319.28  2337.18  2363.09  2382.93  2393.26  2405.17  2414.54  2424.92  2432.65  2438.50  2442.50  2443.70  2443.00  2444.30  2450.10  2453.60  2459.90  2464.70  2467.90  2470.30  2476.90  2478.30  2479.80  2480.90  2477.60  2475.50  2473.40  2471.20  2467.60  2466.40  2466.40  2466.90  2468.00  2470.10  2473.60  2474.60  2478.50  2486.80  2496.90  2503.40  2506.70  2510.70  2514.50  2520.10  2524.30  2529.80  2537.00  2546.50  2561.20  2569.40  2577.60  2590.90  2606.20  2618.30  2631.80  2641.60  2653.60  2662.80  2671.70  2680.60  2697.60  2714.40  2733.40  2750.20  2760.70  2767.20  2761.20  2743.50  2723.70  2703.40  2684.10  2667.40  2647.60  2638.00  2626.60  2618.80  2608.10  2609.00  2607.10  2602.10  2585.90  2573.40  2562.70  2556.30  2548.60  2540.90  2532.90  2524.20  2517.20  2508.40  2500.20  2494.50  2487.90  2482.20  2475.20  2468.00  2461.30  2453.20  2445.00  2440.30  2439.00  2436.50  2434.10  2431.60
2442.20  2443.90  2435.90  2422.30  2406.00  2389.30  2371.70  2353.30  2324.00  2300.00  2283.00  2271.20  2260.20  2247.90  2236.90  2229.50  2222.10  2213.50  2208.80  2210.30  2216.90  2222.52  2239.06  2238.26  2235.38  2235.08  2228.81  2223.80  2227.67  2232.59  2236.65  2232.03  2215.19  2186.50  2168.68  2160.50  2151.63  2153.61  2158.17  2163.99  2164.10  2151.01  2144.02  2139.79  2132.47  2129.29  2131.83  2143.50  2151.01  2164.20  2176.26  2179.30  2189.44  2195.99  2203.26  2216.06  2234.87  2254.45  2274.09  2283.96  2289.28  2293.33  2298.43  2312.14  2328.98  2357.15  2376.44  2384.33  2397.56  2407.51  2414.23  2427.30  2429.00  2432.10  2434.80  2431.90  2435.00  2440.20  2444.50  2447.20  2450.30  2453.70  2455.20  2457.70  2458.60  2459.40  2461.50  2461.40  2459.90  2458.30  2456.60  2456.20  2456.40  2456.40  2457.40  2459.90  2463.50  2466.30  2468.20  2475.80  2483.60  2489.00  2495.00  2500.20  2502.90  2506.60  2512.00  2516.70  2520.30  2526.80  2536.40  2549.20  2558.80  2567.90  2578.50  2595.60  2607.10  2620.70  2632.60  2644.00  2658.00  2667.30  2677.30  2695.10  2716.30  2728.50  2744.20  2756.00  2762.40  2760.20  2740.30  2720.90  2701.50  2685.70  2667.70  2648.10  2631.80  2619.80  2616.50  2620.70  2618.40  2606.60  2599.50  2583.00  2568.90  2560.70  2553.10  2541.60  2532.10  2522.20  2515.40  2508.00  2499.60  2492.00  2487.00  2481.50  2473.50  2467.40  2460.60  2452.40  2444.20  2439.30  2438.10  2437.20  2433.90  2431.90  2429.50
2445.60  2442.30  2433.00  2417.70  2402.50  2385.40  2367.50  2351.30  2325.20  2298.20  2278.50  2265.80  2255.20  2243.70  2232.90  2224.30  2214.00  2208.10  2205.00  2204.60  2210.00  2233.96  2232.13  2233.01  2226.06  2221.22  2214.14  2216.88  2221.98  2226.20  2229.33  2221.61  2190.25  2158.63  2143.42  2134.22  2139.43  2140.27  2147.03  2155.56  2153.59  2146.32  2145.95  2139.19  2127.93  2124.13  2134.57  2140.73  2147.26  2158.84  2163.54  2167.15  2179.76  2187.60  2194.44  2205.55  2228.08  2248.94  2267.86  2276.60  2275.22  2277.81  2290.20  2306.64  2327.51  2351.37  2370.54  2380.65  2392.20  2404.80  2412.70  2419.30  2420.00  2421.30  2423.60  2421.10  2422.50  2425.10  2429.80  2433.10  2435.30  2437.60  2439.90  2443.70  2446.00  2443.30  2445.60  2448.20  2446.70  2445.10  2445.40  2446.10  2446.70  2447.60  2450.60  2454.70  2458.40  2461.10  2462.10  2465.60  2472.60  2479.20  2485.10  2490.50  2494.70  2497.80  2502.20  2506.90  2511.80  2518.90  2528.30  2537.10  2546.40  2557.90  2569.60  2584.10  2594.20  2610.20  2626.40  2637.80  2651.10  2664.20  2672.90  2685.00  2699.10  2717.50  2735.10  2746.80  2754.40  2752.70  2737.40  2718.00  2700.00  2681.10  2662.20  2643.10  2627.60  2621.70  2624.00  2619.10  2611.20  2599.80  2588.40  2574.90  2557.50  2550.40  2543.50  2532.70  2521.60  2512.90  2505.00  2498.10  2491.70  2483.90  2477.80  2472.00  2463.20  2458.50  2454.90  2445.60  2439.20  2437.60  2436.20  2435.20  2432.20  2429.00  2427.00
2434.40  2426.70  2417.90  2404.30  2395.70  2381.30  2363.70  2344.70  2320.80  2295.90  2274.60  2260.20  2248.40  2236.70  2226.60  2216.30  2204.50  2201.00  2201.20  2200.80  2203.50  2209.00  2223.00  2212.01  2210.99  2204.89  2207.17  2208.69  2211.31  2215.19  2212.49  2202.14  2141.53  2119.40  2116.54  2116.33  2128.35  2131.49  2132.48  2147.94  2148.45  2145.05  2138.19  2133.81  2120.82  2110.37  2124.50  2131.83  2140.43  2149.80  2153.69  2157.87  2165.39  2176.68  2185.16  2200.30  2222.54  2239.04  2254.82  2265.74  2269.50  2267.56  2279.56  2307.47  2327.00  2339.23  2362.16  2369.13  2377.06  2396.80  2404.10  2408.60  2408.70  2410.20  2410.00  2408.90  2408.20  2409.80  2414.90  2418.80  2422.70  2426.40  2432.60  2435.70  2436.80  2432.30  2431.10  2434.20  2433.00  2433.40  2434.30  2435.20  2437.10  2440.70  2446.10  2450.30  2452.50  2452.90  2454.20  2456.30  2462.90  2470.20  2475.70  2481.30  2486.50  2490.00  2493.90  2498.20  2505.30  2512.40  2520.00  2529.10  2538.10  2550.20  2560.70  2573.50  2583.90  2596.20  2613.80  2628.80  2643.40  2657.00  2662.80  2676.20  2691.00  2708.20  2723.90  2736.30  2744.00  2742.50  2736.30  2714.80  2695.90  2676.70  2658.20  2639.10  2628.40  2628.70  2621.20  2618.20  2603.50  2590.60  2578.90  2564.50  2551.50  2539.30  2528.50  2519.10  2512.30  2504.20  2495.10  2490.00  2483.90  2476.20  2468.30  2461.30  2456.80  2452.50  2449.10  2441.30  2438.00  2436.00  2434.40  2433.30  2430.60  2427.20  2424.10
2422.30  2411.90  2400.20  2389.30  2377.90  2370.20  2354.80  2334.10  2314.40  2292.60  2271.90  2255.40  2242.40  2228.90  2217.60  2207.90  2193.80  2184.60  2185.30  2183.20  2186.50  2185.60  2185.30  2194.02  2187.78  2194.53  2190.05  2193.23  2174.61  2162.51  2153.59  2121.13  2115.69  2104.29  2105.52  2107.08  2114.25  2115.19  2119.11  2129.55  2126.70  2115.25  2107.69  2105.57  2090.31  2094.24  2106.99  2118.24  2129.68  2137.63  2139.74  2145.82  2152.84  2162.65  2176.24  2193.91  2210.96  2225.72  2238.98  2245.61  2263.77  2272.18  2274.79  2301.43  2319.38  2339.93  2350.68  2361.17  2365.03  2383.20  2391.60  2396.50  2395.90  2396.70  2396.50  2396.10  2395.30  2397.10  2401.60  2408.50  2414.90  2421.00  2425.70  2427.80  2424.30  2422.50  2421.30  2420.20  2420.60  2421.20  2423.00  2426.50  2432.90  2438.50  2442.00  2443.90  2444.30  2444.70  2445.30  2449.20  2455.40  2461.20  2466.70  2472.30  2478.00  2481.90  2484.80  2490.90  2498.20  2505.50  2514.30  2523.20  2533.90  2544.00  2553.40  2561.80  2572.20  2584.50  2599.10  2617.60  2633.90  2646.50  2657.40  2668.00  2678.10  2694.50  2711.10  2724.40  2731.70  2730.10  2723.20  2704.60  2685.80  2669.50  2648.50  2639.10  2634.80  2633.20  2629.30  2620.90  2604.70  2586.20  2570.80  2555.90  2543.20  2531.10  2520.30  2509.40  2500.70  2494.50  2483.80  2480.50  2476.20  2468.60  2460.70  2456.90  2452.20  2448.40  2443.30  2439.40  2437.10  2434.80  2432.70  2431.30  2428.90  2425.50  2422.10
2414.90  2399.00  2392.90  2379.90  2369.90  2361.40  2342.00  2325.00  2307.20  2280.70  2265.90  2247.20  2231.80  2220.00  2206.90  2196.60  2182.80  2169.60  2161.60  2158.00  2157.00  2158.50  2161.50  2183.91  2176.92  2182.95  2175.39  2170.92  2160.26  2137.57  2109.24  2095.40  2092.84  2091.88  2092.65  2097.76  2097.75  2090.72  2095.21  2097.94  2095.53  2096.72  2088.14  2080.38  2077.62  2082.45  2100.36  2106.80  2115.61  2121.43  2126.67  2136.62  2144.38  2157.53  2168.70  2183.86  2200.01  2218.44  2228.97  2236.31  2244.25  2267.08  2269.20  2282.25  2300.69  2320.80  2340.82  2346.84  2358.60  2368.40  2376.10  2379.50  2376.60  2381.10  2381.70  2381.20  2383.60  2390.00  2398.60  2403.80  2409.40  2415.50  2416.60  2417.40  2415.60  2409.80  2408.30  2409.80  2411.60  2413.50  2418.50  2423.90  2427.90  2432.20  2434.70  2435.60  2436.00  2436.40  2436.90  2442.20  2448.20  2453.80  2458.20  2463.30  2468.90  2472.50  2477.10  2483.40  2491.40  2500.00  2508.80  2516.90  2524.80  2534.20  2542.80  2550.40  2563.30  2575.20  2586.90  2600.80  2619.90  2631.90  2644.70  2654.60  2663.00  2678.10  2694.80  2708.40  2716.10  2716.80  2707.10  2693.70  2676.90  2661.30  2647.90  2645.50  2645.20  2645.50  2639.30  2628.40  2613.80  2594.50  2580.00  2563.90  2548.70  2535.10  2523.60  2511.30  2499.30  2487.50  2477.20  2471.70  2466.50  2460.10  2457.10  2453.70  2450.30  2445.60  2440.00  2437.30  2435.60  2433.80  2431.60  2429.50  2427.30  2423.90  2419.70
2408.40  2397.60  2383.80  2380.20  2361.10  2346.30  2330.90  2320.40  2302.50  2277.50  2262.40  2244.20  2223.40  2206.10  2193.90  2181.90  2167.00  2154.60  2147.20  2142.00  2142.70  2148.30  2152.20  2154.70  2170.97  2169.89  2158.64  2152.46  2135.69  2111.51  2087.83  2082.36  2083.09  2083.10  2081.90  2081.87  2078.79  2079.09  2082.48  2079.37  2081.37  2080.60  2073.89  2069.90  2074.45  2088.96  2092.94  2098.25  2106.59  2112.26  2115.70  2124.35  2136.66  2149.96  2164.26  2181.44  2199.60  2207.86  2219.67  2227.43  2232.13  2241.18  2266.37  2274.61  2281.31  2286.60  2302.10  2324.20  2342.60  2347.50  2354.00  2359.70  2357.60  2361.50  2365.30  2371.50  2378.20  2385.10  2397.30  2401.50  2402.80  2401.70  2400.90  2405.60  2407.80  2398.10  2398.80  2399.90  2401.90  2407.90  2415.10  2418.50  2421.40  2423.90  2425.90  2426.80  2427.60  2428.00  2429.90  2435.20  2441.00  2446.80  2451.10  2455.70  2459.80  2465.70  2471.40  2478.20  2486.50  2495.40  2504.30  2510.60  2515.20  2523.40  2532.20  2539.60  2553.10  2563.50  2570.50  2578.20  2593.80  2611.70  2625.80  2636.60  2646.30  2659.20  2678.60  2690.60  2701.60  2703.70  2697.30  2685.20  2670.20  2658.70  2652.70  2651.00  2658.40  2658.40  2649.60  2638.10  2626.40  2612.50  2590.70  2571.80  2554.40  2540.10  2528.40  2517.00  2502.00  2489.80  2478.50  2469.40  2459.90  2457.10  2454.40  2450.80  2447.30  2443.70  2439.40  2435.00  2432.60  2430.90  2429.30  2427.60  2425.60  2421.90  2415.70
2396.90  2386.10  2372.50  2365.60  2352.70  2332.70  2317.20  2301.50  2283.10  2270.10  2261.20  2239.60  2221.50  2196.20  2177.30  2162.00  2147.80  2138.60  2133.20  2129.00  2131.60  2140.90  2143.30  2146.40  2164.41  2158.62  2155.31  2146.80  2128.15  2097.77  2070.35  2069.15  2075.45  2077.26  2072.52  2072.26  2068.39  2065.35  2060.94  2055.65  2055.85  2066.83  2061.67  2065.73  2075.54  2082.75  2084.72  2089.18  2094.60  2098.94  2105.49  2114.96  2127.78  2141.81  2158.11  2175.04  2196.95  2204.72  2208.66  2217.09  2224.82  2225.62  2250.70  2263.76  2271.44  2279.72  2286.70  2297.40  2323.00  2330.40  2338.70  2337.80  2343.00  2349.30  2359.20  2365.90  2370.70  2376.80  2380.60  2384.60  2387.90  2393.20  2393.10  2396.70  2401.30  2396.10  2391.00  2391.00  2398.30  2404.60  2408.00  2409.80  2412.90  2415.10  2416.40  2417.40  2418.50  2420.20  2422.90  2428.40  2434.10  2439.70  2444.40  2449.00  2454.90  2461.80  2468.90  2476.30  2484.40  2492.60  2498.10  2501.00  2506.20  2513.70  2521.50  2528.80  2536.80  2547.50  2556.60  2566.70  2578.90  2589.80  2599.50  2614.70  2623.80  2636.50  2655.30  2670.80  2681.70  2686.00  2685.70  2679.20  2670.50  2661.10  2657.80  2657.60  2661.00  2660.80  2655.60  2645.60  2633.80  2619.40  2598.50  2575.50  2561.60  2545.00  2533.10  2520.00  2503.60  2490.90  2480.20  2469.30  2459.70  2455.60  2451.80  2448.50  2445.10  2441.70  2437.60  2433.00  2429.80  2426.70  2423.80  2421.70  2419.70  2416.10  2411.10
2382.60  2373.60  2360.70  2352.40  2339.30  2325.50  2306.50  2291.60  2267.70  2251.40  2237.20  2222.50  2201.50  2180.80  2156.20  2139.80  2130.10  2123.60  2118.40  2116.30  2125.20  2130.60  2130.80  2134.30  2141.90  2142.10  2146.56  2140.67  2096.21  2078.04  2068.32  2065.69  2063.49  2059.71  2051.15  2047.43  2044.02  2034.45  2034.25  2039.74  2050.96  2054.29  2046.36  2042.18  2054.16  2065.31  2073.30  2077.75  2081.09  2085.12  2094.71  2104.32  2118.23  2133.70  2151.42  2167.25  2186.15  2197.03  2200.36  2206.76  2214.40  2221.15  2230.56  2246.38  2261.01  2265.05  2281.30  2290.10  2299.30  2319.70  2327.30  2328.90  2334.10  2340.00  2350.60  2355.40  2358.60  2366.80  2370.10  2372.70  2378.90  2382.30  2384.10  2385.00  2384.50  2382.10  2381.50  2385.30  2392.00  2399.60  2400.80  2401.50  2403.60  2404.70  2405.70  2406.80  2409.00  2412.30  2415.60  2422.00  2427.80  2433.00  2438.60  2444.10  2451.80  2460.30  2467.70  2475.00  2481.40  2487.00  2489.00  2491.50  2497.40  2503.70  2510.60  2518.10  2525.70  2534.40  2543.00  2554.50  2567.00  2580.40  2591.30  2603.00  2613.60  2626.30  2639.20  2652.60  2664.00  2668.40  2668.00  2665.80  2661.20  2658.70  2660.20  2662.10  2662.80  2660.40  2651.90  2644.10  2634.50  2620.50  2598.50  2579.70  2564.80  2550.40  2535.20  2520.00  2505.40  2494.40  2483.70  2471.00  2459.50  2455.20  2451.10  2447.10  2443.50  2440.10  2435.70  2431.70  2428.20  2424.70  2421.50  2412.30  2398.60  2396.10  2396.60
2370.90  2361.90  2351.60  2344.60  2332.60  2309.80  2286.20  2271.80  2257.40  2245.80  2225.00  2196.50  2181.80  2162.10  2141.70  2121.50  2113.60  2107.70  2105.20  2103.80  2115.30  2113.20  2110.40  2113.00  2126.30  2123.70  2101.90  2086.70  2061.00  2056.57  2052.05  2044.91  2040.81  2036.24  2030.05  2023.69  2016.37  2016.14  2019.93  2027.50  2037.77  2039.49  2027.82  2020.62  2030.98  2041.02  2047.80  2056.34  2068.41  2074.47  2085.52  2094.81  2110.36  2126.97  2138.57  2156.39  2169.96  2177.39  2190.22  2195.14  2204.73  2211.41  2220.79  2229.53  2240.34  2251.50  2264.80  2283.40  2295.00  2308.40  2315.40  2321.50  2327.50  2336.10  2343.10  2347.50  2352.30  2357.00  2363.30  2366.00  2370.30  2372.80  2371.50  2371.20  2370.30  2372.20  2372.50  2378.00  2383.90  2389.60  2392.20  2393.10  2394.10  2395.00  2395.90  2397.80  2401.00  2404.30  2408.30  2414.90  2421.60  2426.30  2432.40  2440.30  2450.40  2459.60  2466.20  2471.10  2476.10  2478.30  2479.90  2482.50  2487.50  2493.20  2499.90  2507.50  2516.10  2524.40  2537.00  2550.20  2564.30  2577.60  2594.80  2606.20  2618.60  2627.00  2635.10  2642.10  2650.00  2651.30  2652.50  2653.90  2655.10  2654.30  2657.10  2663.00  2663.30  2660.70  2648.30  2637.40  2628.00  2616.60  2598.80  2580.00  2567.70  2552.90  2535.20  2521.90  2509.80  2497.50  2484.20  2470.00  2458.70  2454.80  2450.80  2446.70  2443.00  2439.80  2436.90  2433.00  2429.10  2425.60  2421.50  2409.10  2392.40  2378.40  2377.20
2362.00  2353.30  2345.00  2337.70  2319.50  2303.50  2283.70  2251.10  2236.50  2230.30  2215.10  2191.20  2162.90  2145.50  2128.40  2110.10  2097.60  2090.90  2088.40  2087.70  2093.40  2090.80  2083.60  2085.50  2108.20  2105.40  2080.70  2076.20  2067.10  2055.20  2035.77  2039.80  2023.65  2018.78  2016.53  2010.76  2007.85  2002.01  2000.20  2000.40  2008.67  2010.52  2003.50  2000.11  2008.97  2022.67  2035.75  2047.47  2056.94  2062.17  2079.79  2087.94  2097.23  2118.49  2129.66  2136.26  2149.31  2160.42  2170.38  2183.22  2190.15  2199.05  2211.04  2214.30  2227.10  2246.40  2259.80  2280.00  2289.70  2296.50  2304.60  2314.00  2321.50  2329.20  2334.00  2339.20  2343.30  2347.00  2355.60  2358.60  2361.30  2359.30  2356.90  2357.60  2360.20  2362.80  2365.90  2372.60  2376.20  2379.60  2382.10  2384.00  2385.00  2386.10  2387.10  2389.00  2393.90  2397.00  2401.00  2407.60  2415.00  2419.60  2427.50  2435.50  2444.10  2453.30  2461.00  2464.80  2467.60  2470.10  2471.70  2472.70  2477.40  2483.10  2490.00  2499.10  2509.50  2521.90  2534.40  2547.80  2563.10  2581.40  2594.20  2607.00  2618.10  2623.60  2629.00  2633.80  2635.80  2636.00  2638.60  2641.80  2645.20  2649.30  2651.60  2654.30  2656.40  2655.00  2644.60  2630.60  2620.90  2604.70  2594.10  2578.90  2565.70  2551.60  2536.00  2523.30  2506.10  2494.50  2482.80  2469.60  2458.60  2455.50  2452.20  2448.80  2444.70  2440.10  2432.80  2429.00  2426.40  2423.80  2421.40  2414.40  2398.50  2375.30  2356.20
2354.60  2349.20  2344.70  2332.00  2303.60  2279.00  2266.70  2246.00  2218.90  2206.20  2194.70  2174.80  2154.00  2132.80  2117.00  2099.50  2086.10  2073.90  2068.60  2070.10  2067.50  2064.20  2058.90  2052.80  2071.00  2075.80  2062.50  2065.60  2054.40  2046.10  2037.80  2025.80  2016.70  2001.40  1999.21  1997.32  1991.98  1988.04  1987.84  1984.38  1991.06  1996.89  1989.30  1980.25  1990.91  2016.05  2025.28  2038.50  2046.63  2045.26  2061.37  2075.97  2084.31  2104.10  2118.94  2128.65  2139.08  2148.87  2158.94  2169.89  2181.04  2175.20  2190.30  2205.00  2221.60  2245.50  2256.90  2271.10  2278.50  2285.50  2294.00  2303.10  2312.40  2320.60  2324.30  2328.10  2331.40  2340.70  2344.30  2346.60  2348.10  2344.80  2341.70  2346.40  2350.00  2353.40  2362.00  2366.20  2369.70  2370.90  2373.10  2373.80  2373.90  2375.40  2377.00  2381.10  2387.10  2390.20  2394.20  2401.00  2408.30  2412.50  2420.20  2428.20  2436.10  2442.20  2448.60  2453.80  2458.50  2461.90  2463.10  2464.10  2466.90  2473.30  2481.50  2493.00  2505.40  2516.50  2527.80  2541.30  2555.30  2572.10  2587.00  2594.80  2603.00  2614.00  2616.00  2617.30  2618.70  2620.00  2622.40  2624.70  2627.20  2629.80  2630.60  2631.90  2632.20  2632.20  2629.60  2619.70  2606.80  2594.40  2585.50  2574.40  2559.60  2545.20  2529.30  2511.80  2494.30  2481.50  2475.90  2471.20  2462.00  2455.70  2450.90  2446.10  2441.40  2436.90  2431.30  2423.20  2418.80  2412.30  2409.70  2404.40  2395.80  2373.90  2350.30
2345.30  2337.60  2330.00  2319.40  2300.70  2265.50  2246.50  2236.40  2215.10  2189.10  2172.20  2156.10  2140.00  2121.20  2104.70  2090.50  2076.80  2062.60  2047.20  2042.70  2042.60  2037.00  2034.40  2037.60  2039.80  2043.80  2051.80  2055.70  2041.00  2031.50  2022.10  2014.50  2004.20  1989.90  1975.50  1983.36  1977.14  1975.11  1980.71  1978.29  1988.34  1992.97  1953.05  1964.22  1987.04  2006.77  2022.03  2032.23  2035.77  2033.83  2044.78  2058.64  2072.36  2089.54  2098.67  2114.73  2128.25  2136.65  2135.00  2143.10  2153.50  2167.30  2184.60  2209.00  2227.10  2240.20  2248.70  2256.80  2265.10  2275.70  2285.70  2293.70  2300.90  2307.80  2314.90  2316.50  2317.70  2323.90  2323.60  2322.30  2325.60  2319.00  2325.20  2332.20  2340.10  2346.20  2350.40  2360.50  2362.10  2362.30  2362.70  2362.70  2362.30  2361.60  2367.60  2370.60  2379.20  2382.50  2388.20  2394.90  2401.60  2405.50  2412.50  2420.90  2426.60  2431.30  2435.80  2438.60  2442.30  2445.80  2448.40  2450.80  2455.30  2463.00  2476.10  2488.50  2500.00  2510.60  2521.20  2534.80  2548.60  2559.90  2578.00  2585.30  2588.60  2590.90  2593.00  2593.80  2595.80  2598.80  2602.20  2605.70  2608.60  2611.90  2613.50  2614.00  2614.70  2613.20  2611.10  2604.30  2593.90  2583.20  2574.40  2565.40  2553.30  2537.00  2514.50  2495.80  2481.10  2475.20  2471.10  2467.30  2462.80  2456.20  2449.80  2443.50  2437.60  2432.30  2426.90  2421.60  2415.90  2406.10  2401.10  2387.90  2381.30  2368.70  2349.10
2330.20  2320.40  2305.40  2301.00  2278.90  2257.20  2224.10  2209.80  2197.20  2180.50  2157.80  2142.10  2124.70  2108.90  2094.00  2080.30  2067.20  2052.30  2037.90  2026.70  2018.80  2017.60  2019.00  2030.60  2031.50  2033.30  2045.80  2042.30  2029.60  2019.10  2012.90  2005.30  1994.90  1975.20  1958.80  1950.70  1945.20  1935.90  1955.81  1957.41  1978.16  1943.22  1945.75  1968.69  1983.07  1991.59  2015.36  2010.78  2014.84  2018.64  2029.11  2042.08  2058.28  2069.88  2079.67  2080.30  2090.90  2100.00  2117.40  2129.90  2139.10  2161.40  2179.70  2204.00  2221.50  2230.00  2236.90  2244.60  2253.50  2267.30  2280.50  2287.60  2292.20  2300.00  2306.10  2307.10  2305.60  2300.60  2294.90  2294.50  2294.60  2298.90  2307.50  2315.50  2324.70  2330.90  2335.50  2338.90  2340.20  2342.00  2348.60  2348.60  2344.80  2345.10  2350.70  2352.70  2362.30  2373.50  2381.40  2387.30  2391.20  2397.60  2403.40  2408.90  2414.60  2418.80  2421.40  2422.70  2425.10  2426.70  2428.70  2433.20  2441.60  2459.00  2472.20  2482.30  2491.80  2501.10  2512.80  2526.90  2538.70  2550.00  2559.50  2560.00  2560.90  2567.40  2572.40  2574.80  2577.40  2579.50  2582.00  2587.30  2591.90  2594.40  2596.90  2597.60  2598.00  2598.30  2595.30  2590.00  2580.00  2569.30  2561.10  2548.40  2532.60  2516.00  2499.20  2482.30  2474.80  2469.70  2465.30  2461.90  2458.30  2453.70  2448.70  2441.60  2433.10  2425.80  2419.10  2412.70  2408.00  2403.60  2393.20  2377.30  2362.10  2351.20  2340.30
2302.00  2294.60  2279.60  2277.40  2252.40  2226.70  2206.90  2186.80  2174.00  2156.40  2139.40  2128.00  2114.00  2098.70  2083.30  2069.50  2055.90  2042.30  2031.10  2020.70  2012.00  2009.70  2014.60  2022.20  2022.40  2027.20  2038.20  2033.90  2020.80  2010.30  2003.60  1998.10  1980.70  1962.20  1943.70  1928.80  1924.70  1915.40  1907.60  1913.70  1947.86  1931.70  1958.65  1965.40  1965.30  1962.67  1964.76  1982.77  1999.40  2002.70  2012.63  2027.77  2024.90  2033.80  2040.70  2047.40  2065.20  2087.10  2102.60  2106.60  2125.60  2161.10  2176.30  2195.60  2212.80  2219.40  2227.60  2233.50  2245.10  2259.60  2270.90  2279.10  2283.50  2288.40  2291.10  2290.30  2287.00  2273.80  2272.10  2277.00  2281.60  2289.30  2297.00  2300.90  2306.40  2313.80  2318.20  2317.00  2314.90  2322.40  2326.70  2329.70  2325.50  2327.30  2334.30  2341.10  2349.80  2363.70  2371.50  2376.10  2380.10  2384.90  2389.80  2395.30  2399.70  2407.60  2410.20  2411.20  2410.80  2411.10  2412.50  2418.60  2436.50  2453.10  2464.40  2473.50  2483.10  2492.30  2504.30  2517.90  2528.40  2538.00  2545.70  2547.10  2545.40  2544.90  2550.50  2556.50  2559.00  2562.00  2565.20  2570.40  2576.20  2580.30  2583.20  2583.80  2584.20  2582.00  2578.70  2575.90  2565.20  2554.70  2542.90  2529.60  2515.80  2500.60  2488.80  2473.90  2467.40  2463.40  2459.40  2455.40  2451.40  2447.70  2443.90  2438.10  2428.50  2419.20  2410.10  2401.90  2395.50  2387.50  2377.50  2365.20  2350.70  2340.40  2329.30
2282.30  2270.10  2255.40  2239.80  2225.40  2214.10  2188.00  2167.20  2155.40  2140.50  2122.90  2111.30  2100.60  2087.50  2073.40  2058.60  2044.20  2032.00  2021.30  2012.80  2004.60  1999.50  2003.10  2009.70  2013.80  2018.00  2027.40  2022.90  2010.40  2001.00  1992.90  1984.70  1967.70  1949.20  1930.70  1912.10  1902.50  1893.80  1891.20  1894.10  1906.60  1921.00  1967.90  1955.95  1946.48  1940.02  1949.73  1961.80  1974.70  1979.90  1985.20  1998.60  2000.50  2005.50  2014.90  2029.50  2045.30  2068.50  2090.00  2108.30  2130.00  2154.90  2169.50  2185.40  2200.10  2208.60  2213.00  2221.60  2237.80  2253.30  2257.60  2265.20  2267.90  2265.60  2263.30  2264.90  2267.40  2256.90  2257.70  2262.90  2270.90  2279.90  2281.90  2283.00  2287.40  2293.50  2294.60  2290.70  2293.90  2299.20  2303.90  2307.90  2304.20  2309.50  2313.70  2317.20  2329.40  2348.80  2360.70  2360.10  2358.50  2365.50  2373.80  2382.70  2388.90  2393.00  2398.50  2399.30  2398.20  2397.10  2401.10  2410.30  2424.90  2442.60  2454.40  2464.80  2474.70  2485.30  2496.00  2506.90  2517.60  2524.60  2531.20  2533.10  2532.60  2531.20  2534.60  2539.60  2544.00  2545.80  2548.40  2554.40  2563.30  2566.60  2569.80  2570.50  2570.70  2567.10  2564.60  2560.00  2550.80  2540.10  2528.10  2515.80  2501.50  2489.30  2477.00  2467.60  2460.00  2455.50  2451.20  2448.20  2444.60  2440.90  2433.20  2424.70  2414.00  2400.80  2392.00  2382.80  2374.50  2367.30  2357.90  2348.00  2338.00  2329.30  2319.20
2260.00  2250.80  2239.10  2224.20  2202.40  2197.60  2177.10  2152.60  2140.80  2127.50  2113.90  2096.90  2084.20  2072.10  2063.40  2050.10  2034.40  2022.20  2013.00  2004.40  1996.80  1995.10  1996.40  1999.80  2006.20  2012.60  2018.00  2013.10  2000.40  1988.50  1981.20  1973.80  1962.40  1948.10  1928.90  1908.40  1901.70  1881.90  1875.30  1881.50  1896.30  1906.80  1918.40  1925.40  1926.40  1929.30  1932.50  1943.00  1955.10  1960.90  1963.60  1974.60  1977.10  1989.50  2004.10  2018.30  2045.80  2070.60  2093.60  2108.90  2128.50  2147.90  2161.90  2171.50  2176.50  2182.10  2191.10  2206.10  2234.30  2244.50  2243.70  2245.60  2244.40  2242.20  2240.00  2253.00  2247.80  2241.60  2238.40  2246.30  2262.00  2266.60  2266.50  2265.00  2268.00  2273.90  2271.20  2268.10  2270.30  2266.30  2277.10  2286.70  2283.10  2287.20  2290.20  2296.50  2313.30  2330.40  2338.20  2334.90  2336.20  2338.00  2344.00  2361.20  2366.90  2369.90  2376.10  2376.20  2375.30  2376.40  2386.20  2402.70  2417.20  2433.80  2446.70  2456.70  2466.30  2475.40  2484.80  2493.70  2501.60  2509.40  2514.10  2516.30  2517.60  2518.90  2523.70  2528.90  2533.20  2534.20  2534.40  2538.10  2540.00  2546.70  2553.70  2556.00  2555.00  2550.70  2546.30  2539.90  2532.50  2524.10  2514.80  2502.40  2490.00  2477.40  2461.00  2454.70  2450.40  2446.80  2442.60  2439.20  2433.00  2425.70  2416.00  2404.20  2392.20  2383.40  2375.70  2368.70  2358.60  2349.10  2339.90  2334.10  2326.50  2319.00  2312.70
2221.70  2225.50  2210.20  2198.90  2181.40  2162.20  2154.80  2138.20  2122.60  2112.80  2100.50  2083.20  2070.30  2058.60  2050.00  2037.60  2024.80  2013.90  2003.90  1996.40  1990.10  1990.00  1991.90  1996.50  2001.60  2003.60  2007.30  2001.70  1991.00  1977.00  1970.00  1961.50  1952.00  1942.90  1925.70  1905.80  1903.40  1882.30  1860.60  1867.30  1877.00  1888.10  1902.30  1906.00  1901.80  1904.50  1909.60  1924.20  1935.40  1939.70  1942.10  1949.30  1969.40  1978.80  1992.30  2016.30  2037.50  2052.80  2066.10  2098.00  2120.90  2136.30  2140.90  2151.40  2162.10  2167.60  2174.30  2186.90  2205.40  2220.50  2214.10  2216.00  2219.60  2222.80  2228.80  2228.30  2222.40  2218.50  2215.80  2230.40  2243.90  2248.20  2246.70  2245.70  2246.40  2248.30  2247.00  2244.30  2241.50  2238.90  2255.50  2262.90  2257.70  2256.80  2262.40  2283.50  2298.00  2309.00  2312.70  2313.50  2313.30  2306.70  2319.20  2339.20  2346.50  2352.70  2356.60  2357.90  2359.00  2362.10  2379.00  2397.50  2410.90  2423.60  2437.30  2445.80  2454.00  2462.70  2472.70  2481.50  2490.00  2496.50  2501.50  2503.80  2506.00  2508.20  2512.10  2518.00  2523.60  2525.30  2523.70  2524.50  2524.00  2528.10  2531.70  2534.30  2535.30  2532.50  2527.20  2522.90  2515.10  2506.40  2497.80  2488.30  2477.40  2463.50  2450.60  2443.50  2439.90  2435.90  2429.30  2422.30  2414.50  2405.00  2394.60  2385.00  2376.10  2368.90  2361.80  2357.30  2345.40  2338.70  2331.60  2327.40  2324.80  2322.60  2321.00
2193.80  2195.50  2190.80  2174.70  2174.90  2150.40  2130.30  2119.80  2104.80  2095.80  2085.40  2071.00  2057.00  2045.60  2036.50  2024.80  2013.50  2003.70  1994.30  1989.40  1984.60  1985.30  1988.20  1989.50  1994.20  1994.70  2000.80  1988.10  1975.80  1965.00  1957.90  1950.30  1942.90  1929.00  1908.20  1893.90  1889.60  1879.30  1856.60  1853.20  1855.50  1860.00  1867.00  1868.20  1872.50  1880.90  1893.90  1902.20  1913.60  1921.90  1928.20  1945.50  1957.80  1969.40  1983.00  2004.40  2019.30  2030.40  2044.50  2059.80  2090.00  2113.10  2111.20  2125.00  2133.90  2146.80  2156.00  2167.40  2187.50  2190.60  2187.90  2192.30  2197.20  2202.10  2207.10  2205.20  2201.90  2201.90  2198.90  2212.70  2224.80  2225.20  2224.40  2224.00  2223.30  2225.70  2222.80  2221.90  2221.70  2222.90  2236.00  2236.60  2233.70  2233.20  2244.70  2263.70  2281.60  2284.60  2284.10  2289.70  2289.20  2289.30  2305.20  2321.10  2329.30  2335.20  2336.60  2337.90  2342.80  2357.40  2376.50  2389.50  2403.30  2414.40  2423.60  2433.30  2443.60  2454.00  2462.20  2470.90  2477.70  2483.50  2488.40  2490.90  2493.70  2496.40  2499.90  2505.60  2511.70  2515.40  2514.90  2514.10  2514.00  2511.20  2513.60  2512.90  2512.90  2512.20  2507.60  2503.30  2498.10  2491.40  2480.00  2472.00  2461.50  2451.00  2440.60  2434.70  2428.90  2424.30  2414.70  2404.50  2395.60  2386.00  2378.20  2373.40  2361.70  2357.80  2353.90  2346.20  2340.10  2339.00  2338.00  2336.30  2333.60  2331.60  2330.00
